ncols	 274
nrows	 41
xllcorner	 110.4
yllcorner	 -7.5833333333
cellsize	 0.00833333333333
NODATA_value  -9999 
-9999   -9999   -9999   -9999   -9999   -9999   -9999   -9999   -9999   -9999   -9999   -9999   -9999   -9999   -9999   -9999   -9999   -9999   -9999   -9999   -9999   -9999   -9999   -9999   -9999   -9999   -9999   -9999   -9999   -9999   -9999   -9999   -9999   -9999   -9999   -9999   -9999   -9999   -9999   -9999   -9999   -9999   -9999   -9999   -9999   -9999   -9999   -9999   -9999   -9999   -9999   -9999   -9999   -9999   -9999   -9999   -9999   -9999   -9999   -9999   -9999   -9999   -9999   -9999   -9999   -9999   -9999   -9999   -9999   -9999   -9999   -9999   -9999   -9999   -9999   -9999   -9999   -9999   -9999   -9999   -9999   -9999   -9999   -9999   -9999   153.00   -9999   -9999   -9999   -9999   -9999   -9999   -9999   -9999   -9999   -9999   178.00   172.00   167.00   180.00   171.00   170.00   175.00   166.00   155.00   156.00   141.00   153.00   160.00   140.00   129.00   127.00   111.00   117.00   108.00   109.00   105.00   129.00   108.00   95.00   94.00   90.00   70.00   60.00   56.00   48.00   41.00   49.00   46.00   34.00   36.00   35.00   35.00   34.00   35.00   38.00   39.00   41.00   43.00   44.00   51.00   47.00   51.00   48.00   47.00   59.00   60.00   62.00   63.00   63.00   58.00   66.00   71.00   60.00   61.00   60.00   53.00   51.00   60.00   69.00   73.00   73.00   65.00   67.00   64.00   66.00   72.00   75.00   71.00   63.00   51.00   52.00   51.00   45.00   51.00   45.00   41.00   47.00   52.00   44.00   43.00   41.00   39.00   38.00   34.00   34.00   36.00   37.00   35.00   35.00   34.00   35.00   40.00   45.00   41.00   43.00   39.00   42.00   39.00   45.00   46.00   42.00   39.00   43.00   41.00   40.00   37.00   44.00   64.00   87.00   105.00   122.00   129.00   107.00   83.00   71.00   66.00   72.00   80.00   83.00   69.00   63.00   66.00   63.00   70.00   71.00   62.00   64.00   75.00   88.00   100.00   93.00   58.00   53.00   60.00   57.00   -9999   -9999   -9999   -9999   -9999   -9999   -9999   -9999   -9999   -9999   -9999   -9999   -9999   -9999   -9999   -9999   -9999   -9999   -9999   -9999   -9999   -9999   -9999   -9999   -9999   -9999   -9999   -9999   -9999   -9999   -9999   -9999   -9999   -9999   -9999   -9999   -9999   -9999
-9999   -9999   -9999   -9999   -9999   -9999   -9999   -9999   -9999   -9999   -9999   -9999   -9999   -9999   -9999   -9999   -9999   -9999   -9999   -9999   -9999   -9999   -9999   -9999   -9999   -9999   -9999   -9999   -9999   -9999   -9999   -9999   -9999   -9999   -9999   -9999   -9999   -9999   -9999   -9999   -9999   -9999   -9999   -9999   -9999   -9999   -9999   -9999   -9999   -9999   -9999   -9999   -9999   -9999   -9999   -9999   -9999   -9999   -9999   -9999   -9999   -9999   -9999   -9999   -9999   -9999   -9999   -9999   -9999   -9999   -9999   -9999   -9999   -9999   -9999   -9999   -9999   -9999   -9999   -9999   -9999   -9999   -9999   -9999   146.00   137.00   148.00   -9999   -9999   -9999   -9999   -9999   -9999   -9999   -9999   -9999   168.00   156.00   149.00   155.00   156.00   162.00   164.00   167.00   163.00   156.00   143.00   149.00   142.00   130.00   127.00   126.00   125.00   122.00   111.00   124.00   108.00   128.00   118.00   114.00   102.00   88.00   78.00   73.00   59.00   47.00   40.00   49.00   44.00   41.00   39.00   44.00   38.00   37.00   40.00   43.00   44.00   48.00   50.00   50.00   51.00   54.00   58.00   51.00   51.00   53.00   64.00   63.00   68.00   68.00   65.00   66.00   73.00   64.00   69.00   65.00   57.00   52.00   58.00   69.00   81.00   75.00   70.00   70.00   67.00   71.00   80.00   78.00   72.00   72.00   75.00   72.00   67.00   58.00   54.00   47.00   42.00   44.00   55.00   50.00   45.00   44.00   42.00   37.00   34.00   36.00   38.00   41.00   39.00   35.00   40.00   38.00   38.00   47.00   46.00   47.00   41.00   43.00   44.00   47.00   48.00   45.00   41.00   47.00   48.00   46.00   48.00   65.00   92.00   115.00   127.00   150.00   168.00   162.00   112.00   83.00   81.00   106.00   128.00   82.00   77.00   78.00   76.00   72.00   81.00   76.00   72.00   81.00   73.00   88.00   100.00   94.00   93.00   78.00   78.00   -9999   -9999   -9999   -9999   -9999   -9999   -9999   -9999   -9999   -9999   -9999   -9999   -9999   -9999   -9999   -9999   -9999   -9999   -9999   -9999   -9999   -9999   -9999   -9999   -9999   -9999   -9999   -9999   -9999   -9999   -9999   -9999   -9999   -9999   -9999   -9999   -9999   -9999   -9999
-9999   -9999   -9999   -9999   -9999   -9999   -9999   -9999   -9999   -9999   -9999   -9999   -9999   -9999   -9999   -9999   -9999   -9999   -9999   -9999   -9999   -9999   -9999   -9999   -9999   -9999   -9999   -9999   -9999   -9999   -9999   -9999   -9999   -9999   -9999   -9999   -9999   -9999   -9999   -9999   -9999   -9999   -9999   -9999   -9999   -9999   -9999   -9999   -9999   -9999   -9999   -9999   -9999   -9999   -9999   -9999   -9999   -9999   -9999   -9999   -9999   -9999   -9999   -9999   -9999   -9999   -9999   -9999   -9999   -9999   -9999   -9999   -9999   -9999   -9999   -9999   -9999   -9999   -9999   -9999   -9999   -9999   139.00   143.00   142.00   129.00   136.00   143.00   143.00   -9999   -9999   155.00   -9999   -9999   -9999   163.00   164.00   157.00   147.00   138.00   144.00   142.00   143.00   147.00   146.00   160.00   160.00   162.00   149.00   139.00   134.00   125.00   123.00   119.00   127.00   111.00   116.00   131.00   114.00   103.00   94.00   96.00   90.00   81.00   72.00   64.00   53.00   47.00   52.00   57.00   47.00   57.00   50.00   54.00   53.00   50.00   55.00   56.00   59.00   59.00   56.00   64.00   61.00   56.00   55.00   56.00   62.00   65.00   71.00   78.00   70.00   67.00   76.00   70.00   76.00   65.00   61.00   56.00   63.00   65.00   79.00   82.00   71.00   74.00   74.00   83.00   83.00   76.00   80.00   89.00   81.00   84.00   88.00   66.00   54.00   49.00   47.00   46.00   55.00   54.00   49.00   45.00   39.00   38.00   37.00   38.00   41.00   43.00   44.00   39.00   43.00   40.00   39.00   49.00   54.00   44.00   42.00   45.00   48.00   54.00   54.00   53.00   44.00   51.00   57.00   62.00   62.00   76.00   89.00   100.00   133.00   154.00   158.00   172.00   135.00   113.00   135.00   162.00   128.00   110.00   124.00   108.00   91.00   80.00   87.00   82.00   89.00   102.00   89.00   94.00   101.00   99.00   122.00   122.00   -9999   -9999   -9999   -9999   -9999   -9999   -9999   -9999   -9999   -9999   -9999   -9999   -9999   -9999   -9999   -9999   -9999   -9999   -9999   -9999   -9999   -9999   -9999   -9999   -9999   -9999   -9999   -9999   -9999   -9999   -9999   -9999   -9999   -9999   -9999   -9999   -9999   -9999   -9999   -9999
-9999   -9999   -9999   -9999   -9999   -9999   -9999   -9999   -9999   -9999   -9999   -9999   -9999   -9999   -9999   -9999   -9999   -9999   -9999   -9999   -9999   -9999   -9999   -9999   -9999   -9999   -9999   -9999   -9999   -9999   -9999   -9999   -9999   -9999   -9999   -9999   -9999   -9999   -9999   -9999   -9999   -9999   -9999   -9999   -9999   -9999   -9999   -9999   -9999   -9999   -9999   -9999   -9999   -9999   -9999   -9999   -9999   -9999   -9999   -9999   -9999   -9999   -9999   -9999   -9999   -9999   -9999   -9999   -9999   -9999   -9999   -9999   -9999   132.00   140.00   144.00   145.00   -9999   -9999   -9999   141.00   142.00   134.00   138.00   140.00   128.00   122.00   131.00   131.00   132.00   137.00   142.00   159.00   149.00   148.00   162.00   156.00   152.00   147.00   141.00   133.00   130.00   131.00   131.00   133.00   141.00   141.00   147.00   159.00   146.00   141.00   133.00   125.00   128.00   135.00   127.00   127.00   141.00   129.00   121.00   112.00   87.00   71.00   56.00   47.00   53.00   62.00   67.00   66.00   78.00   77.00   74.00   68.00   75.00   66.00   54.00   70.00   65.00   72.00   68.00   67.00   67.00   63.00   60.00   60.00   65.00   63.00   70.00   72.00   79.00   72.00   75.00   80.00   81.00   76.00   68.00   61.00   61.00   61.00   68.00   75.00   85.00   78.00   77.00   73.00   88.00   80.00   83.00   91.00   99.00   88.00   101.00   92.00   77.00   67.00   59.00   53.00   49.00   59.00   52.00   47.00   42.00   40.00   41.00   39.00   43.00   44.00   46.00   51.00   42.00   45.00   45.00   43.00   43.00   49.00   45.00   48.00   47.00   49.00   58.00   57.00   49.00   50.00   56.00   69.00   69.00   64.00   62.00   77.00   102.00   119.00   123.00   133.00   130.00   136.00   166.00   164.00   -9999   -9999   127.00   158.00   145.00   144.00   106.00   107.00   90.00   91.00   93.00   -9999   -9999   -9999   -9999   -9999   -9999   -9999   -9999   -9999   -9999   -9999   -9999   -9999   -9999   -9999   -9999   -9999   -9999   -9999   -9999   -9999   -9999   -9999   -9999   -9999   -9999   -9999   -9999   -9999   -9999   -9999   -9999   -9999   -9999   -9999   -9999   -9999   -9999   -9999   -9999   -9999   -9999   -9999   -9999   -9999   -9999
-9999   -9999   -9999   -9999   -9999   -9999   -9999   -9999   -9999   -9999   -9999   -9999   -9999   -9999   -9999   -9999   -9999   -9999   -9999   -9999   -9999   -9999   -9999   -9999   -9999   -9999   -9999   -9999   -9999   -9999   -9999   -9999   -9999   -9999   -9999   -9999   -9999   -9999   -9999   -9999   -9999   -9999   -9999   -9999   -9999   -9999   -9999   -9999   -9999   -9999   -9999   -9999   -9999   -9999   -9999   -9999   -9999   -9999   -9999   -9999   -9999   -9999   -9999   -9999   -9999   -9999   -9999   128.00   139.00   137.00   139.00   136.00   130.00   120.00   129.00   145.00   135.00   137.00   146.00   150.00   141.00   124.00   124.00   129.00   138.00   123.00   127.00   138.00   123.00   136.00   135.00   139.00   140.00   144.00   141.00   147.00   147.00   162.00   157.00   145.00   127.00   121.00   115.00   116.00   118.00   123.00   131.00   133.00   143.00   145.00   144.00   149.00   129.00   139.00   143.00   147.00   148.00   135.00   117.00   97.00   89.00   76.00   80.00   75.00   68.00   51.00   84.00   75.00   72.00   84.00   94.00   85.00   90.00   86.00   64.00   70.00   89.00   83.00   88.00   79.00   83.00   72.00   68.00   63.00   62.00   70.00   72.00   75.00   84.00   83.00   84.00   78.00   86.00   92.00   79.00   68.00   71.00   66.00   68.00   71.00   75.00   89.00   83.00   81.00   75.00   90.00   90.00   104.00   104.00   113.00   101.00   111.00   101.00   99.00   91.00   81.00   82.00   68.00   68.00   62.00   52.00   43.00   42.00   44.00   46.00   46.00   46.00   50.00   54.00   44.00   48.00   49.00   44.00   49.00   49.00   52.00   52.00   50.00   50.00   61.00   54.00   51.00   53.00   51.00   66.00   62.00   53.00   55.00   63.00   78.00   88.00   102.00   106.00   108.00   127.00   -9999   -9999   -9999   -9999   -9999   -9999   -9999   -9999   -9999   157.00   143.00   -9999   -9999   -9999   -9999   -9999   -9999   -9999   -9999   -9999   -9999   -9999   -9999   -9999   -9999   -9999   -9999   -9999   -9999   -9999   -9999   -9999   -9999   -9999   -9999   -9999   -9999   -9999   -9999   -9999   -9999   -9999   -9999   -9999   -9999   -9999   -9999   -9999   -9999   -9999   -9999   -9999   -9999   -9999   -9999   -9999   -9999   -9999   -9999
-9999   -9999   -9999   -9999   -9999   -9999   -9999   -9999   -9999   -9999   -9999   -9999   -9999   -9999   -9999   -9999   -9999   -9999   -9999   -9999   -9999   -9999   -9999   -9999   -9999   -9999   -9999   -9999   -9999   -9999   -9999   -9999   -9999   -9999   -9999   -9999   -9999   -9999   -9999   -9999   -9999   -9999   -9999   -9999   -9999   -9999   -9999   -9999   -9999   -9999   -9999   -9999   -9999   -9999   -9999   -9999   -9999   -9999   -9999   -9999   -9999   -9999   -9999   -9999   -9999   128.00   125.00   116.00   127.00   123.00   139.00   141.00   134.00   121.00   126.00   131.00   138.00   129.00   130.00   127.00   128.00   117.00   118.00   131.00   121.00   110.00   122.00   125.00   116.00   120.00   127.00   140.00   128.00   138.00   147.00   134.00   141.00   141.00   153.00   154.00   144.00   126.00   118.00   111.00   108.00   108.00   112.00   130.00   125.00   125.00   140.00   146.00   144.00   143.00   141.00   139.00   133.00   137.00   124.00   111.00   98.00   96.00   97.00   80.00   56.00   58.00   90.00   85.00   88.00   74.00   91.00   108.00   98.00   88.00   80.00   73.00   100.00   104.00   95.00   99.00   94.00   85.00   83.00   67.00   65.00   80.00   89.00   86.00   110.00   106.00   94.00   86.00   93.00   95.00   78.00   73.00   73.00   71.00   70.00   73.00   82.00   92.00   95.00   89.00   80.00   94.00   109.00   115.00   119.00   115.00   113.00   126.00   117.00   125.00   112.00   109.00   106.00   97.00   92.00   77.00   50.00   46.00   46.00   49.00   49.00   47.00   50.00   52.00   55.00   48.00   47.00   55.00   48.00   54.00   50.00   54.00   57.00   55.00   53.00   61.00   59.00   58.00   52.00   53.00   55.00   62.00   58.00   59.00   59.00   60.00   69.00   78.00   81.00   87.00   96.00   -9999   -9999   -9999   -9999   -9999   -9999   -9999   -9999   -9999   -9999   -9999   -9999   -9999   -9999   -9999   -9999   -9999   -9999   -9999   -9999   -9999   -9999   -9999   -9999   -9999   -9999   -9999   -9999   -9999   -9999   -9999   -9999   -9999   -9999   -9999   -9999   -9999   -9999   -9999   -9999   -9999   -9999   -9999   -9999   -9999   -9999   -9999   -9999   -9999   -9999   -9999   -9999   -9999   -9999   -9999   -9999   -9999   -9999   -9999
-9999   -9999   -9999   -9999   -9999   -9999   -9999   -9999   -9999   -9999   -9999   -9999   -9999   -9999   -9999   -9999   -9999   -9999   -9999   -9999   -9999   -9999   -9999   -9999   -9999   -9999   -9999   -9999   -9999   -9999   -9999   -9999   -9999   -9999   -9999   -9999   -9999   -9999   -9999   -9999   -9999   -9999   -9999   -9999   -9999   -9999   -9999   -9999   -9999   -9999   -9999   -9999   -9999   -9999   -9999   -9999   -9999   -9999   -9999   -9999   -9999   -9999   -9999   118.00   114.00   114.00   113.00   110.00   112.00   124.00   132.00   129.00   132.00   122.00   113.00   129.00   132.00   111.00   130.00   116.00   105.00   118.00   126.00   122.00   111.00   108.00   116.00   122.00   105.00   121.00   135.00   137.00   124.00   118.00   123.00   120.00   129.00   136.00   124.00   138.00   138.00   145.00   139.00   132.00   125.00   121.00   121.00   116.00   118.00   117.00   133.00   140.00   127.00   129.00   125.00   117.00   122.00   129.00   130.00   116.00   112.00   94.00   74.00   70.00   53.00   69.00   86.00   104.00   95.00   90.00   103.00   117.00   109.00   93.00   73.00   92.00   112.00   117.00   107.00   118.00   108.00   108.00   92.00   69.00   78.00   86.00   106.00   105.00   130.00   132.00   122.00   103.00   105.00   93.00   86.00   92.00   85.00   78.00   78.00   72.00   79.00   91.00   102.00   97.00   85.00   105.00   119.00   130.00   133.00   123.00   129.00   132.00   137.00   139.00   129.00   124.00   122.00   119.00   102.00   73.00   52.00   52.00   46.00   52.00   51.00   54.00   52.00   54.00   57.00   53.00   50.00   52.00   54.00   57.00   54.00   56.00   58.00   59.00   57.00   65.00   66.00   57.00   56.00   57.00   62.00   65.00   66.00   64.00   63.00   67.00   64.00   68.00   72.00   79.00   89.00   -9999   -9999   -9999   -9999   -9999   -9999   -9999   -9999   -9999   -9999   -9999   -9999   -9999   -9999   -9999   -9999   -9999   -9999   -9999   -9999   -9999   -9999   -9999   -9999   -9999   -9999   -9999   -9999   -9999   -9999   -9999   -9999   -9999   -9999   -9999   -9999   -9999   -9999   -9999   -9999   -9999   -9999   -9999   -9999   -9999   -9999   -9999   -9999   -9999   -9999   -9999   -9999   -9999   -9999   -9999   -9999   -9999   -9999   -9999
-9999   -9999   -9999   -9999   -9999   -9999   -9999   -9999   -9999   -9999   -9999   -9999   -9999   -9999   -9999   -9999   -9999   -9999   -9999   -9999   -9999   -9999   -9999   -9999   -9999   -9999   -9999   -9999   -9999   -9999   -9999   -9999   -9999   -9999   -9999   -9999   -9999   -9999   -9999   -9999   -9999   -9999   -9999   -9999   -9999   -9999   -9999   -9999   -9999   -9999   -9999   -9999   -9999   -9999   -9999   -9999   -9999   -9999   -9999   -9999   -9999   -9999   117.00   114.00   111.00   106.00   111.00   104.00   115.00   129.00   121.00   121.00   118.00   121.00   111.00   118.00   123.00   111.00   103.00   108.00   93.00   109.00   121.00   130.00   110.00   99.00   112.00   105.00   114.00   126.00   129.00   138.00   125.00   121.00   117.00   123.00   132.00   136.00   114.00   115.00   131.00   130.00   125.00   121.00   117.00   113.00   119.00   118.00   108.00   104.00   113.00   120.00   113.00   116.00   120.00   104.00   112.00   117.00   118.00   112.00   89.00   86.00   80.00   54.00   64.00   80.00   89.00   112.00   109.00   100.00   105.00   123.00   120.00   101.00   85.00   82.00   103.00   121.00   134.00   138.00   122.00   114.00   85.00   78.00   89.00   103.00   111.00   106.00   108.00   137.00   132.00   119.00   125.00   106.00   91.00   110.00   98.00   95.00   82.00   84.00   78.00   92.00   111.00   107.00   101.00   125.00   132.00   141.00   142.00   142.00   150.00   149.00   160.00   147.00   143.00   140.00   134.00   119.00   96.00   61.00   56.00   53.00   47.00   60.00   58.00   55.00   54.00   58.00   60.00   61.00   57.00   53.00   62.00   59.00   58.00   60.00   61.00   59.00   63.00   71.00   67.00   61.00   58.00   63.00   68.00   74.00   70.00   69.00   71.00   74.00   72.00   74.00   75.00   82.00   90.00   -9999   -9999   -9999   -9999   -9999   -9999   -9999   -9999   -9999   -9999   -9999   -9999   -9999   -9999   -9999   -9999   -9999   -9999   -9999   -9999   -9999   -9999   -9999   -9999   -9999   -9999   -9999   -9999   -9999   -9999   -9999   -9999   -9999   -9999   -9999   -9999   -9999   -9999   -9999   -9999   -9999   -9999   -9999   -9999   -9999   -9999   -9999   -9999   -9999   -9999   -9999   -9999   -9999   -9999   -9999   -9999   -9999   -9999   -9999
-9999   -9999   -9999   -9999   -9999   -9999   -9999   -9999   -9999   -9999   -9999   -9999   -9999   -9999   -9999   -9999   -9999   -9999   -9999   -9999   -9999   -9999   -9999   -9999   -9999   -9999   -9999   -9999   -9999   -9999   -9999   -9999   -9999   -9999   -9999   -9999   -9999   -9999   -9999   -9999   -9999   -9999   -9999   -9999   -9999   -9999   -9999   -9999   -9999   -9999   -9999   -9999   -9999   -9999   -9999   -9999   -9999   -9999   -9999   -9999   -9999   116.00   110.00   110.00   102.00   104.00   106.00   100.00   111.00   127.00   130.00   111.00   117.00   107.00   103.00   105.00   112.00   99.00   97.00   105.00   93.00   94.00   107.00   120.00   107.00   101.00   100.00   98.00   118.00   131.00   125.00   129.00   125.00   125.00   105.00   97.00   107.00   106.00   103.00   112.00   128.00   128.00   128.00   130.00   130.00   127.00   136.00   131.00   124.00   120.00   109.00   102.00   108.00   101.00   117.00   107.00   102.00   102.00   103.00   104.00   90.00   74.00   58.00   57.00   62.00   70.00   73.00   102.00   91.00   83.00   88.00   101.00   115.00   119.00   116.00   97.00   97.00   115.00   137.00   123.00   104.00   96.00   89.00   101.00   87.00   113.00   126.00   117.00   111.00   114.00   133.00   123.00   137.00   116.00   101.00   103.00   104.00   111.00   95.00   94.00   84.00   90.00   123.00   128.00   120.00   133.00   148.00   156.00   147.00   156.00   160.00   146.00   162.00   152.00   135.00   122.00   107.00   96.00   73.00   62.00   63.00   51.00   50.00   58.00   63.00   59.00   58.00   62.00   64.00   66.00   57.00   57.00   68.00   63.00   66.00   65.00   66.00   63.00   68.00   75.00   67.00   63.00   64.00   70.00   75.00   78.00   79.00   82.00   84.00   86.00   83.00   84.00   84.00   -9999   -9999   -9999   -9999   -9999   -9999   -9999   -9999   -9999   -9999   -9999   -9999   -9999   -9999   -9999   -9999   -9999   -9999   -9999   -9999   -9999   -9999   -9999   -9999   -9999   -9999   -9999   -9999   -9999   -9999   -9999   -9999   -9999   -9999   -9999   -9999   -9999   -9999   -9999   -9999   -9999   -9999   -9999   -9999   -9999   -9999   -9999   -9999   -9999   -9999   -9999   -9999   -9999   -9999   -9999   -9999   -9999   -9999   -9999   -9999   -9999
-9999   -9999   -9999   -9999   -9999   -9999   -9999   -9999   -9999   -9999   -9999   -9999   -9999   -9999   -9999   -9999   -9999   -9999   -9999   -9999   -9999   -9999   -9999   -9999   -9999   -9999   -9999   -9999   -9999   -9999   -9999   -9999   -9999   -9999   -9999   -9999   -9999   -9999   -9999   -9999   -9999   -9999   -9999   -9999   -9999   -9999   -9999   -9999   -9999   -9999   -9999   -9999   -9999   -9999   -9999   -9999   -9999   -9999   132.00   136.00   132.00   124.00   114.00   105.00   106.00   99.00   98.00   96.00   108.00   112.00   115.00   110.00   106.00   109.00   107.00   97.00   109.00   97.00   84.00   94.00   96.00   89.00   108.00   106.00   102.00   87.00   99.00   105.00   120.00   112.00   125.00   120.00   102.00   115.00   119.00   100.00   93.00   95.00   108.00   117.00   117.00   117.00   103.00   114.00   138.00   135.00   130.00   125.00   113.00   129.00   122.00   119.00   108.00   101.00   117.00   114.00   106.00   100.00   93.00   105.00   115.00   114.00   104.00   97.00   75.00   71.00   53.00   66.00   70.00   71.00   74.00   81.00   85.00   102.00   120.00   120.00   116.00   120.00   138.00   125.00   109.00   112.00   102.00   100.00   90.00   99.00   119.00   129.00   141.00   131.00   153.00   140.00   144.00   132.00   115.00   105.00   137.00   132.00   117.00   109.00   98.00   98.00   111.00   132.00   127.00   146.00   158.00   165.00   170.00   158.00   158.00   155.00   137.00   112.00   97.00   89.00   87.00   78.00   66.00   69.00   60.00   54.00   52.00   61.00   67.00   65.00   64.00   62.00   67.00   67.00   64.00   62.00   74.00   69.00   74.00   75.00   70.00   66.00   69.00   75.00   70.00   67.00   69.00   74.00   84.00   91.00   92.00   -9999   -9999   -9999   -9999   -9999   -9999   -9999   -9999   -9999   -9999   -9999   -9999   -9999   -9999   -9999   -9999   -9999   -9999   -9999   -9999   -9999   -9999   -9999   -9999   -9999   -9999   -9999   -9999   -9999   -9999   -9999   -9999   -9999   -9999   -9999   -9999   -9999   -9999   -9999   -9999   -9999   -9999   -9999   -9999   -9999   -9999   -9999   -9999   -9999   -9999   -9999   -9999   -9999   -9999   -9999   -9999   -9999   -9999   -9999   -9999   -9999   -9999   -9999   -9999   -9999   -9999   -9999
-9999   -9999   -9999   -9999   -9999   -9999   -9999   -9999   -9999   -9999   -9999   -9999   -9999   -9999   -9999   -9999   -9999   -9999   -9999   -9999   -9999   -9999   -9999   -9999   -9999   -9999   -9999   -9999   -9999   -9999   -9999   -9999   -9999   -9999   -9999   -9999   -9999   -9999   -9999   -9999   -9999   -9999   -9999   -9999   -9999   -9999   -9999   -9999   -9999   -9999   -9999   -9999   -9999   -9999   -9999   -9999   -9999   127.00   135.00   129.00   134.00   126.00   120.00   123.00   111.00   102.00   90.00   90.00   93.00   96.00   102.00   110.00   104.00   106.00   95.00   106.00   100.00   91.00   81.00   85.00   87.00   87.00   101.00   102.00   96.00   84.00   101.00   90.00   101.00   100.00   106.00   116.00   99.00   112.00   102.00   91.00   81.00   97.00   109.00   108.00   111.00   117.00   104.00   111.00   131.00   134.00   121.00   117.00   108.00   125.00   136.00   128.00   133.00   96.00   109.00   132.00   122.00   100.00   97.00   102.00   99.00   102.00   89.00   90.00   76.00   52.00   54.00   57.00   68.00   62.00   64.00   67.00   89.00   101.00   94.00   97.00   113.00   129.00   139.00   123.00   128.00   117.00   120.00   123.00   116.00   97.00   100.00   121.00   152.00   157.00   174.00   156.00   140.00   133.00   132.00   112.00   120.00   139.00   141.00   128.00   109.00   111.00   130.00   143.00   143.00   134.00   136.00   143.00   157.00   175.00   178.00   153.00   118.00   113.00   100.00   99.00   94.00   77.00   72.00   74.00   63.00   61.00   54.00   66.00   73.00   74.00   71.00   67.00   70.00   71.00   76.00   72.00   78.00   78.00   86.00   80.00   75.00   69.00   72.00   78.00   72.00   74.00   78.00   82.00   91.00   96.00   -9999   -9999   -9999   -9999   -9999   -9999   -9999   -9999   -9999   -9999   -9999   -9999   -9999   -9999   -9999   -9999   -9999   -9999   -9999   -9999   -9999   -9999   -9999   -9999   -9999   -9999   -9999   -9999   -9999   -9999   -9999   -9999   -9999   -9999   -9999   -9999   -9999   -9999   -9999   -9999   -9999   -9999   -9999   -9999   -9999   -9999   -9999   -9999   -9999   -9999   -9999   -9999   -9999   -9999   -9999   -9999   -9999   -9999   -9999   -9999   -9999   -9999   -9999   -9999   -9999   -9999   -9999   -9999
-9999   -9999   -9999   -9999   -9999   -9999   -9999   -9999   -9999   -9999   -9999   -9999   -9999   -9999   -9999   -9999   -9999   -9999   -9999   -9999   -9999   -9999   -9999   -9999   -9999   -9999   -9999   -9999   -9999   -9999   -9999   -9999   -9999   -9999   -9999   -9999   -9999   -9999   -9999   -9999   -9999   -9999   -9999   -9999   -9999   -9999   -9999   -9999   -9999   -9999   -9999   -9999   -9999   -9999   -9999   114.00   122.00   121.00   120.00   113.00   118.00   132.00   140.00   128.00   111.00   104.00   90.00   88.00   87.00   92.00   91.00   95.00   112.00   121.00   100.00   89.00   82.00   87.00   79.00   75.00   73.00   79.00   91.00   87.00   94.00   83.00   77.00   95.00   105.00   94.00   93.00   90.00   91.00   88.00   83.00   85.00   81.00   108.00   103.00   110.00   101.00   116.00   112.00   100.00   113.00   127.00   121.00   122.00   112.00   104.00   111.00   116.00   118.00   88.00   96.00   112.00   110.00   98.00   96.00   111.00   94.00   89.00   77.00   76.00   81.00   69.00   69.00   75.00   89.00   90.00   83.00   81.00   83.00   81.00   87.00   92.00   96.00   115.00   136.00   128.00   138.00   131.00   128.00   133.00   114.00   107.00   113.00   108.00   135.00   161.00   175.00   159.00   172.00   164.00   144.00   130.00   134.00   158.00   156.00   136.00   118.00   118.00   107.00   135.00   150.00   144.00   154.00   152.00   176.00   175.00   154.00   145.00   138.00   127.00   111.00   104.00   97.00   84.00   75.00   70.00   69.00   56.00   58.00   65.00   79.00   76.00   80.00   77.00   77.00   74.00   86.00   85.00   89.00   86.00   94.00   86.00   83.00   81.00   78.00   82.00   77.00   77.00   91.00   100.00   95.00   92.00   -9999   -9999   -9999   -9999   -9999   -9999   -9999   -9999   -9999   -9999   -9999   -9999   -9999   -9999   -9999   -9999   -9999   -9999   -9999   -9999   -9999   -9999   -9999   -9999   -9999   -9999   -9999   -9999   -9999   -9999   -9999   -9999   -9999   -9999   -9999   -9999   -9999   -9999   -9999   -9999   -9999   -9999   -9999   -9999   -9999   -9999   -9999   -9999   -9999   -9999   -9999   -9999   -9999   -9999   -9999   -9999   -9999   -9999   -9999   -9999   -9999   -9999   -9999   -9999   -9999   -9999   -9999   -9999
-9999   -9999   -9999   -9999   -9999   -9999   -9999   -9999   -9999   -9999   -9999   -9999   -9999   -9999   -9999   -9999   -9999   -9999   -9999   -9999   -9999   -9999   -9999   -9999   -9999   -9999   -9999   -9999   -9999   -9999   -9999   -9999   -9999   -9999   -9999   -9999   -9999   -9999   -9999   -9999   -9999   -9999   -9999   -9999   -9999   -9999   -9999   -9999   -9999   -9999   -9999   -9999   -9999   -9999   111.00   111.00   113.00   114.00   109.00   107.00   115.00   120.00   121.00   119.00   112.00   108.00   94.00   87.00   86.00   87.00   89.00   100.00   119.00   114.00   89.00   84.00   80.00   77.00   73.00   83.00   75.00   73.00   76.00   75.00   71.00   71.00   81.00   86.00   88.00   84.00   75.00   76.00   86.00   81.00   72.00   79.00   74.00   92.00   98.00   98.00   96.00   97.00   98.00   93.00   101.00   116.00   112.00   107.00   112.00   107.00   86.00   99.00   116.00   93.00   76.00   76.00   91.00   90.00   93.00   108.00   113.00   97.00   92.00   89.00   65.00   54.00   58.00   61.00   79.00   97.00   97.00   108.00   113.00   105.00   97.00   114.00   109.00   114.00   126.00   147.00   184.00   179.00   142.00   135.00   131.00   121.00   119.00   126.00   122.00   131.00   152.00   179.00   171.00   150.00   134.00   135.00   145.00   151.00   175.00   147.00   144.00   129.00   127.00   133.00   157.00   146.00   152.00   165.00   186.00   187.00   185.00   176.00   162.00   176.00   159.00   141.00   118.00   104.00   94.00   91.00   85.00   63.00   75.00   71.00   87.00   89.00   95.00   84.00   85.00   80.00   79.00   95.00   99.00   94.00   94.00   97.00   93.00   85.00   79.00   90.00   83.00   83.00   90.00   103.00   99.00   104.00   -9999   -9999   -9999   -9999   -9999   -9999   -9999   -9999   -9999   -9999   -9999   -9999   -9999   -9999   -9999   -9999   -9999   -9999   -9999   -9999   -9999   -9999   -9999   -9999   -9999   -9999   -9999   -9999   -9999   -9999   -9999   -9999   -9999   -9999   -9999   -9999   -9999   -9999   -9999   -9999   -9999   -9999   -9999   -9999   -9999   -9999   -9999   -9999   -9999   -9999   -9999   -9999   -9999   -9999   -9999   -9999   -9999   -9999   -9999   -9999   -9999   -9999   -9999   -9999   -9999   -9999   -9999   -9999
-9999   -9999   -9999   -9999   -9999   -9999   -9999   -9999   -9999   -9999   -9999   -9999   -9999   -9999   -9999   -9999   -9999   -9999   -9999   -9999   -9999   -9999   -9999   -9999   -9999   -9999   -9999   -9999   -9999   -9999   -9999   -9999   -9999   -9999   -9999   -9999   -9999   -9999   -9999   -9999   -9999   -9999   -9999   -9999   -9999   -9999   -9999   -9999   -9999   -9999   -9999   -9999   -9999   -9999   113.00   111.00   114.00   118.00   119.00   124.00   117.00   105.00   107.00   116.00   107.00   99.00   89.00   84.00   83.00   92.00   90.00   100.00   94.00   81.00   78.00   75.00   81.00   86.00   75.00   82.00   78.00   72.00   73.00   71.00   75.00   80.00   82.00   71.00   70.00   69.00   70.00   70.00   76.00   69.00   68.00   68.00   69.00   74.00   84.00   82.00   87.00   93.00   90.00   84.00   82.00   105.00   100.00   99.00   93.00   79.00   79.00   96.00   97.00   102.00   81.00   68.00   65.00   82.00   78.00   97.00   121.00   117.00   114.00   91.00   67.00   59.00   56.00   62.00   84.00   98.00   108.00   118.00   125.00   127.00   128.00   122.00   137.00   136.00   135.00   152.00   162.00   168.00   166.00   154.00   151.00   143.00   148.00   172.00   160.00   166.00   172.00   171.00   177.00   153.00   147.00   150.00   162.00   165.00   169.00   161.00   150.00   149.00   137.00   142.00   165.00   150.00   157.00   193.00   209.00   233.00   262.00   227.00   207.00   186.00   138.00   127.00   127.00   106.00   120.00   101.00   79.00   112.00   118.00   103.00   94.00   102.00   118.00   110.00   115.00   100.00   91.00   94.00   109.00   104.00   106.00   102.00   104.00   94.00   89.00   94.00   89.00   89.00   89.00   101.00   105.00   -9999   -9999   -9999   -9999   -9999   -9999   -9999   -9999   -9999   -9999   -9999   -9999   -9999   -9999   -9999   -9999   -9999   -9999   -9999   -9999   -9999   -9999   -9999   -9999   -9999   -9999   -9999   -9999   -9999   -9999   -9999   -9999   -9999   -9999   -9999   -9999   -9999   -9999   -9999   -9999   -9999   -9999   -9999   -9999   -9999   -9999   -9999   -9999   -9999   -9999   -9999   -9999   -9999   -9999   -9999   -9999   -9999   -9999   -9999   -9999   -9999   -9999   -9999   -9999   -9999   -9999   -9999   -9999   -9999
-9999   -9999   -9999   -9999   -9999   -9999   -9999   -9999   -9999   -9999   -9999   -9999   -9999   -9999   -9999   -9999   -9999   -9999   -9999   -9999   -9999   -9999   -9999   -9999   -9999   -9999   -9999   -9999   -9999   -9999   -9999   -9999   -9999   -9999   -9999   -9999   -9999   -9999   -9999   -9999   -9999   -9999   -9999   -9999   -9999   -9999   -9999   -9999   -9999   -9999   -9999   -9999   -9999   120.00   115.00   113.00   113.00   116.00   123.00   131.00   123.00   118.00   99.00   96.00   96.00   90.00   82.00   81.00   82.00   88.00   85.00   84.00   80.00   77.00   83.00   89.00   92.00   94.00   93.00   89.00   83.00   80.00   75.00   72.00   73.00   73.00   71.00   71.00   72.00   69.00   69.00   65.00   65.00   66.00   68.00   66.00   82.00   70.00   69.00   69.00   72.00   74.00   86.00   76.00   84.00   97.00   89.00   85.00   71.00   64.00   78.00   73.00   81.00   77.00   60.00   56.00   61.00   72.00   74.00   72.00   91.00   116.00   128.00   106.00   79.00   62.00   69.00   58.00   75.00   90.00   107.00   124.00   125.00   131.00   135.00   144.00   150.00   152.00   152.00   163.00   150.00   162.00   153.00   163.00   167.00   157.00   168.00   215.00   234.00   262.00   217.00   197.00   205.00   177.00   169.00   162.00   167.00   181.00   180.00   161.00   160.00   161.00   152.00   152.00   165.00   169.00   169.00   180.00   243.00   241.00   283.00   243.00   244.00   181.00   142.00   136.00   130.00   126.00   144.00   134.00   98.00   124.00   139.00   144.00   128.00   120.00   128.00   133.00   121.00   103.00   112.00   105.00   116.00   126.00   125.00   123.00   121.00   113.00   98.00   104.00   107.00   103.00   101.00   103.00   110.00   -9999   -9999   -9999   -9999   -9999   -9999   -9999   -9999   -9999   -9999   -9999   -9999   -9999   -9999   -9999   -9999   -9999   -9999   -9999   -9999   -9999   -9999   -9999   -9999   -9999   -9999   -9999   -9999   -9999   -9999   -9999   -9999   -9999   -9999   -9999   -9999   -9999   -9999   -9999   -9999   -9999   -9999   -9999   -9999   -9999   -9999   -9999   -9999   -9999   -9999   -9999   -9999   -9999   -9999   -9999   -9999   -9999   -9999   -9999   -9999   -9999   -9999   -9999   -9999   -9999   -9999   -9999   -9999   -9999
-9999   -9999   -9999   -9999   -9999   -9999   -9999   -9999   -9999   -9999   -9999   -9999   -9999   -9999   -9999   -9999   -9999   -9999   -9999   -9999   -9999   -9999   -9999   -9999   -9999   -9999   -9999   -9999   -9999   -9999   -9999   -9999   -9999   -9999   -9999   -9999   -9999   -9999   -9999   -9999   -9999   -9999   -9999   -9999   -9999   -9999   -9999   -9999   -9999   -9999   -9999   -9999   132.00   122.00   118.00   120.00   121.00   119.00   117.00   117.00   114.00   103.00   95.00   89.00   87.00   85.00   82.00   81.00   80.00   80.00   85.00   78.00   77.00   75.00   78.00   80.00   81.00   80.00   79.00   81.00   78.00   74.00   76.00   73.00   75.00   74.00   72.00   72.00   71.00   71.00   69.00   71.00   71.00   76.00   73.00   72.00   75.00   76.00   77.00   70.00   69.00   67.00   67.00   65.00   65.00   64.00   63.00   63.00   74.00   63.00   69.00   61.00   64.00   61.00   60.00   59.00   61.00   62.00   68.00   67.00   77.00   81.00   84.00   91.00   89.00   84.00   68.00   67.00   88.00   109.00   105.00   120.00   112.00   122.00   141.00   145.00   146.00   138.00   161.00   153.00   131.00   140.00   132.00   130.00   145.00   167.00   181.00   199.00   194.00   199.00   209.00   208.00   215.00   218.00   235.00   214.00   220.00   201.00   189.00   179.00   173.00   171.00   166.00   156.00   176.00   175.00   181.00   180.00   205.00   270.00   266.00   213.00   185.00   139.00   127.00   137.00   126.00   139.00   124.00   104.00   95.00   109.00   128.00   157.00   139.00   128.00   144.00   151.00   147.00   119.00   117.00   125.00   123.00   153.00   146.00   146.00   144.00   119.00   111.00   114.00   123.00   145.00   124.00   130.00   123.00   -9999   -9999   -9999   -9999   -9999   -9999   -9999   -9999   -9999   -9999   -9999   -9999   -9999   -9999   -9999   -9999   -9999   -9999   -9999   -9999   -9999   -9999   -9999   -9999   -9999   -9999   -9999   -9999   -9999   -9999   -9999   -9999   -9999   -9999   -9999   -9999   -9999   -9999   -9999   -9999   -9999   -9999   -9999   -9999   -9999   -9999   -9999   -9999   -9999   -9999   -9999   -9999   -9999   -9999   -9999   -9999   -9999   -9999   -9999   -9999   -9999   -9999   -9999   -9999   -9999   -9999   -9999   -9999   -9999
-9999   -9999   -9999   -9999   -9999   -9999   -9999   -9999   -9999   -9999   -9999   -9999   -9999   -9999   -9999   -9999   -9999   -9999   -9999   -9999   -9999   -9999   -9999   -9999   -9999   -9999   -9999   -9999   -9999   -9999   -9999   -9999   -9999   -9999   -9999   -9999   -9999   -9999   -9999   -9999   -9999   -9999   -9999   -9999   -9999   -9999   -9999   -9999   -9999   -9999   -9999   -9999   140.00   141.00   154.00   144.00   130.00   118.00   113.00   104.00   100.00   94.00   85.00   82.00   78.00   78.00   77.00   76.00   76.00   77.00   75.00   75.00   77.00   73.00   73.00   74.00   74.00   75.00   75.00   76.00   75.00   75.00   76.00   76.00   75.00   76.00   78.00   77.00   74.00   74.00   74.00   71.00   74.00   76.00   76.00   78.00   74.00   73.00   79.00   70.00   71.00   72.00   75.00   68.00   74.00   80.00   73.00   77.00   78.00   80.00   76.00   61.00   59.00   59.00   58.00   57.00   58.00   55.00   61.00   57.00   61.00   58.00   61.00   64.00   71.00   79.00   74.00   58.00   81.00   75.00   78.00   97.00   117.00   142.00   133.00   137.00   135.00   130.00   136.00   140.00   119.00   126.00   122.00   135.00   154.00   155.00   164.00   157.00   158.00   171.00   162.00   166.00   165.00   171.00   189.00   221.00   266.00   289.00   261.00   228.00   204.00   189.00   177.00   162.00   197.00   192.00   183.00   206.00   277.00   227.00   246.00   176.00   147.00   144.00   129.00   139.00   126.00   125.00   133.00   107.00   109.00   117.00   108.00   116.00   141.00   153.00   161.00   158.00   141.00   124.00   121.00   138.00   133.00   144.00   161.00   165.00   153.00   135.00   137.00   131.00   145.00   160.00   148.00   146.00   148.00   -9999   -9999   -9999   -9999   -9999   -9999   -9999   -9999   -9999   -9999   -9999   -9999   -9999   -9999   -9999   -9999   -9999   -9999   -9999   -9999   -9999   -9999   -9999   -9999   -9999   -9999   -9999   -9999   -9999   -9999   -9999   -9999   -9999   -9999   -9999   -9999   -9999   -9999   -9999   -9999   -9999   -9999   -9999   -9999   -9999   -9999   -9999   -9999   -9999   -9999   -9999   -9999   -9999   -9999   -9999   -9999   -9999   -9999   -9999   -9999   -9999   -9999   -9999   -9999   -9999   -9999   -9999   -9999   -9999
-9999   -9999   -9999   -9999   -9999   -9999   -9999   -9999   -9999   -9999   -9999   -9999   -9999   -9999   -9999   -9999   -9999   -9999   -9999   -9999   -9999   -9999   -9999   -9999   -9999   -9999   -9999   -9999   -9999   -9999   -9999   -9999   -9999   -9999   -9999   327.00   310.00   253.00   255.00   -9999   -9999   -9999   -9999   -9999   -9999   -9999   -9999   -9999   -9999   -9999   -9999   -9999   157.00   162.00   148.00   144.00   128.00   112.00   105.00   100.00   92.00   86.00   80.00   80.00   78.00   77.00   76.00   77.00   78.00   76.00   77.00   76.00   74.00   73.00   74.00   75.00   76.00   78.00   78.00   78.00   77.00   77.00   78.00   78.00   79.00   80.00   81.00   80.00   79.00   80.00   80.00   78.00   81.00   80.00   82.00   82.00   77.00   76.00   76.00   69.00   71.00   72.00   71.00   72.00   73.00   72.00   70.00   73.00   76.00   74.00   73.00   69.00   61.00   57.00   57.00   54.00   54.00   53.00   53.00   53.00   51.00   52.00   52.00   50.00   55.00   55.00   54.00   55.00   66.00   75.00   88.00   87.00   106.00   123.00   116.00   121.00   128.00   122.00   131.00   130.00   116.00   114.00   115.00   131.00   144.00   143.00   142.00   142.00   154.00   169.00   152.00   162.00   183.00   192.00   193.00   198.00   218.00   244.00   261.00   302.00   359.00   279.00   198.00   169.00   203.00   216.00   194.00   233.00   296.00   280.00   196.00   209.00   170.00   145.00   128.00   143.00   129.00   129.00   132.00   118.00   122.00   134.00   133.00   131.00   125.00   134.00   161.00   180.00   161.00   145.00   132.00   148.00   164.00   169.00   218.00   193.00   155.00   168.00   162.00   146.00   159.00   -9999   -9999   -9999   -9999   -9999   -9999   -9999   -9999   -9999   -9999   -9999   -9999   -9999   -9999   -9999   -9999   -9999   -9999   -9999   -9999   -9999   -9999   -9999   -9999   -9999   -9999   -9999   -9999   -9999   -9999   -9999   -9999   -9999   -9999   -9999   -9999   -9999   -9999   -9999   -9999   -9999   -9999   -9999   -9999   -9999   -9999   -9999   -9999   -9999   -9999   -9999   -9999   -9999   -9999   -9999   -9999   -9999   -9999   -9999   -9999   -9999   -9999   -9999   -9999   -9999   -9999   -9999   -9999   -9999   -9999   -9999   -9999   -9999
-9999   -9999   -9999   -9999   -9999   -9999   -9999   -9999   -9999   -9999   -9999   -9999   -9999   -9999   -9999   -9999   -9999   -9999   -9999   -9999   -9999   -9999   -9999   -9999   -9999   -9999   -9999   -9999   -9999   -9999   -9999   -9999   -9999   -9999   -9999   289.00   289.00   250.00   257.00   266.00   -9999   -9999   -9999   -9999   -9999   -9999   -9999   -9999   -9999   -9999   -9999   -9999   166.00   156.00   149.00   137.00   126.00   113.00   99.00   88.00   86.00   82.00   81.00   79.00   77.00   77.00   77.00   77.00   75.00   74.00   74.00   74.00   75.00   75.00   76.00   77.00   78.00   80.00   80.00   81.00   80.00   80.00   80.00   83.00   82.00   83.00   83.00   82.00   82.00   87.00   87.00   88.00   90.00   87.00   88.00   84.00   83.00   80.00   77.00   74.00   76.00   76.00   73.00   72.00   74.00   76.00   74.00   74.00   72.00   69.00   68.00   65.00   62.00   60.00   56.00   55.00   52.00   53.00   51.00   51.00   51.00   51.00   51.00   50.00   49.00   54.00   52.00   56.00   60.00   60.00   69.00   82.00   94.00   101.00   92.00   105.00   119.00   120.00   135.00   122.00   119.00   118.00   130.00   138.00   154.00   153.00   146.00   157.00   166.00   172.00   149.00   174.00   177.00   182.00   191.00   207.00   218.00   218.00   222.00   247.00   288.00   358.00   302.00   192.00   197.00   219.00   206.00   233.00   263.00   215.00   182.00   171.00   151.00   140.00   137.00   147.00   144.00   141.00   150.00   136.00   150.00   165.00   156.00   175.00   143.00   159.00   184.00   221.00   186.00   164.00   167.00   152.00   167.00   186.00   200.00   195.00   168.00   190.00   194.00   202.00   -9999   -9999   -9999   -9999   -9999   -9999   -9999   -9999   -9999   -9999   -9999   -9999   -9999   -9999   -9999   -9999   -9999   -9999   -9999   -9999   -9999   -9999   -9999   -9999   -9999   -9999   -9999   -9999   -9999   -9999   -9999   -9999   -9999   -9999   -9999   -9999   -9999   -9999   -9999   -9999   -9999   -9999   -9999   -9999   -9999   -9999   -9999   -9999   -9999   -9999   -9999   -9999   -9999   -9999   -9999   -9999   -9999   -9999   -9999   -9999   -9999   -9999   -9999   -9999   -9999   -9999   -9999   -9999   -9999   -9999   -9999   -9999   -9999   -9999
-9999   -9999   -9999   -9999   -9999   -9999   -9999   -9999   -9999   -9999   -9999   -9999   -9999   -9999   -9999   -9999   -9999   -9999   -9999   -9999   -9999   -9999   -9999   -9999   -9999   -9999   -9999   -9999   -9999   -9999   -9999   -9999   -9999   -9999   312.00   235.00   250.00   201.00   200.00   231.00   209.00   -9999   -9999   -9999   -9999   -9999   -9999   -9999   -9999   -9999   -9999   153.00   156.00   156.00   147.00   137.00   122.00   107.00   94.00   86.00   85.00   81.00   79.00   78.00   77.00   80.00   76.00   75.00   75.00   76.00   76.00   75.00   76.00   76.00   77.00   78.00   80.00   83.00   83.00   82.00   83.00   84.00   84.00   87.00   86.00   88.00   88.00   85.00   85.00   91.00   94.00   96.00   99.00   96.00   97.00   93.00   90.00   83.00   84.00   83.00   82.00   81.00   80.00   80.00   83.00   81.00   78.00   77.00   75.00   72.00   69.00   68.00   62.00   59.00   57.00   55.00   53.00   52.00   51.00   51.00   50.00   50.00   51.00   50.00   50.00   54.00   51.00   58.00   62.00   58.00   59.00   63.00   71.00   81.00   96.00   102.00   110.00   126.00   128.00   112.00   112.00   117.00   131.00   143.00   153.00   142.00   136.00   146.00   164.00   180.00   148.00   159.00   181.00   197.00   204.00   215.00   211.00   217.00   225.00   232.00   241.00   262.00   353.00   300.00   206.00   237.00   241.00   243.00   270.00   187.00   165.00   159.00   154.00   147.00   154.00   164.00   148.00   192.00   201.00   176.00   201.00   235.00   239.00   222.00   189.00   164.00   182.00   229.00   237.00   261.00   278.00   236.00   253.00   240.00   218.00   -9999   -9999   -9999   -9999   -9999   -9999   -9999   -9999   -9999   -9999   -9999   -9999   -9999   -9999   -9999   -9999   -9999   -9999   -9999   -9999   -9999   -9999   -9999   -9999   -9999   -9999   -9999   -9999   -9999   -9999   -9999   -9999   -9999   -9999   -9999   -9999   -9999   -9999   -9999   -9999   -9999   -9999   -9999   -9999   -9999   -9999   -9999   -9999   -9999   -9999   -9999   -9999   -9999   -9999   -9999   -9999   -9999   -9999   -9999   -9999   -9999   -9999   -9999   -9999   -9999   -9999   -9999   -9999   -9999   -9999   -9999   -9999   -9999   -9999   -9999   -9999   -9999   -9999   -9999
-9999   -9999   -9999   -9999   -9999   -9999   -9999   -9999   -9999   -9999   -9999   -9999   -9999   -9999   -9999   -9999   -9999   -9999   -9999   -9999   -9999   -9999   -9999   -9999   -9999   -9999   -9999   -9999   -9999   -9999   -9999   -9999   263.00   285.00   245.00   203.00   195.00   169.00   166.00   179.00   193.00   190.00   172.00   166.00   -9999   -9999   -9999   -9999   -9999   148.00   152.00   147.00   144.00   144.00   140.00   134.00   124.00   107.00   94.00   84.00   83.00   82.00   80.00   77.00   78.00   78.00   77.00   81.00   91.00   93.00   86.00   79.00   77.00   78.00   81.00   82.00   83.00   85.00   85.00   85.00   88.00   87.00   89.00   89.00   91.00   90.00   90.00   91.00   92.00   100.00   100.00   104.00   106.00   109.00   108.00   103.00   97.00   91.00   95.00   92.00   91.00   89.00   88.00   87.00   90.00   87.00   84.00   80.00   77.00   75.00   71.00   68.00   66.00   61.00   59.00   57.00   56.00   54.00   52.00   51.00   50.00   51.00   49.00   50.00   53.00   55.00   49.00   54.00   59.00   65.00   58.00   62.00   65.00   69.00   78.00   94.00   115.00   130.00   145.00   121.00   130.00   132.00   129.00   130.00   139.00   133.00   150.00   164.00   176.00   166.00   145.00   172.00   193.00   215.00   233.00   251.00   228.00   281.00   316.00   317.00   302.00   283.00   288.00   328.00   230.00   263.00   282.00   286.00   301.00   233.00   212.00   187.00   163.00   167.00   212.00   214.00   195.00   197.00   209.00   236.00   255.00   275.00   272.00   229.00   194.00   199.00   255.00   224.00   -9999   -9999   -9999   -9999   -9999   -9999   -9999   -9999   -9999   -9999   -9999   -9999   -9999   -9999   -9999   -9999   -9999   -9999   -9999   -9999   -9999   -9999   -9999   -9999   -9999   -9999   -9999   -9999   -9999   -9999   -9999   -9999   -9999   -9999   -9999   -9999   -9999   -9999   -9999   -9999   -9999   -9999   -9999   -9999   -9999   -9999   -9999   -9999   -9999   -9999   -9999   -9999   -9999   -9999   -9999   -9999   -9999   -9999   -9999   -9999   -9999   -9999   -9999   -9999   -9999   -9999   -9999   -9999   -9999   -9999   -9999   -9999   -9999   -9999   -9999   -9999   -9999   -9999   -9999   -9999   -9999   -9999   -9999   -9999   -9999   -9999
-9999   -9999   -9999   -9999   -9999   -9999   -9999   -9999   -9999   -9999   -9999   -9999   -9999   -9999   -9999   -9999   -9999   -9999   -9999   -9999   -9999   -9999   -9999   -9999   -9999   -9999   -9999   -9999   -9999   337.00   296.00   279.00   241.00   201.00   189.00   178.00   169.00   162.00   154.00   153.00   169.00   173.00   166.00   166.00   174.00   172.00   -9999   -9999   -9999   152.00   148.00   143.00   142.00   143.00   143.00   129.00   112.00   103.00   91.00   84.00   81.00   80.00   79.00   78.00   81.00   77.00   80.00   85.00   89.00   88.00   80.00   80.00   78.00   81.00   85.00   87.00   88.00   88.00   89.00   89.00   91.00   93.00   94.00   95.00   97.00   95.00   97.00   100.00   102.00   108.00   111.00   114.00   117.00   119.00   122.00   111.00   107.00   102.00   108.00   101.00   96.00   100.00   94.00   95.00   95.00   93.00   89.00   83.00   80.00   75.00   71.00   70.00   68.00   64.00   61.00   60.00   57.00   57.00   53.00   53.00   51.00   50.00   49.00   50.00   54.00   51.00   50.00   52.00   52.00   61.00   59.00   61.00   64.00   65.00   72.00   80.00   85.00   100.00   100.00   93.00   94.00   99.00   92.00   97.00   102.00   107.00   112.00   116.00   119.00   119.00   115.00   122.00   137.00   150.00   162.00   190.00   214.00   291.00   330.00   376.00   424.00   355.00   300.00   305.00   258.00   290.00   350.00   390.00   430.00   408.00   307.00   209.00   185.00   208.00   270.00   289.00   280.00   209.00   192.00   229.00   234.00   244.00   268.00   242.00   219.00   208.00   250.00   -9999   -9999   -9999   -9999   -9999   -9999   -9999   -9999   -9999   -9999   -9999   -9999   -9999   -9999   -9999   -9999   -9999   -9999   -9999   -9999   -9999   -9999   -9999   -9999   -9999   -9999   -9999   -9999   -9999   -9999   -9999   -9999   -9999   -9999   -9999   -9999   -9999   -9999   -9999   -9999   -9999   -9999   -9999   -9999   -9999   -9999   -9999   -9999   -9999   -9999   -9999   -9999   -9999   -9999   -9999   -9999   -9999   -9999   -9999   -9999   -9999   -9999   -9999   -9999   -9999   -9999   -9999   -9999   -9999   -9999   -9999   -9999   -9999   -9999   -9999   -9999   -9999   -9999   -9999   -9999   -9999   -9999   -9999   -9999   -9999   -9999   -9999
-9999   -9999   -9999   -9999   -9999   -9999   -9999   -9999   -9999   -9999   -9999   -9999   -9999   -9999   -9999   -9999   -9999   -9999   -9999   -9999   -9999   -9999   -9999   529.00   502.00   485.00   468.00   445.00   391.00   323.00   258.00   225.00   208.00   195.00   185.00   174.00   167.00   162.00   158.00   158.00   160.00   155.00   148.00   156.00   159.00   166.00   161.00   162.00   159.00   150.00   146.00   140.00   141.00   136.00   120.00   127.00   112.00   98.00   91.00   85.00   81.00   79.00   80.00   80.00   80.00   79.00   81.00   80.00   82.00   81.00   80.00   81.00   82.00   87.00   90.00   91.00   91.00   91.00   93.00   94.00   95.00   98.00   98.00   100.00   101.00   102.00   103.00   110.00   114.00   122.00   124.00   128.00   129.00   132.00   129.00   125.00   119.00   116.00   118.00   111.00   107.00   109.00   102.00   102.00   101.00   101.00   92.00   89.00   83.00   75.00   74.00   72.00   69.00   66.00   65.00   61.00   59.00   58.00   54.00   54.00   52.00   50.00   49.00   47.00   48.00   48.00   49.00   52.00   59.00   63.00   62.00   65.00   64.00   64.00   64.00   71.00   74.00   74.00   76.00   77.00   81.00   84.00   86.00   86.00   86.00   89.00   97.00   101.00   102.00   103.00   108.00   118.00   129.00   127.00   144.00   135.00   150.00   198.00   247.00   296.00   352.00   425.00   414.00   422.00   311.00   316.00   371.00   435.00   477.00   433.00   320.00   245.00   236.00   238.00   223.00   253.00   266.00   251.00   210.00   206.00   244.00   262.00   295.00   285.00   244.00   265.00   -9999   -9999   -9999   -9999   -9999   -9999   -9999   -9999   -9999   -9999   -9999   -9999   -9999   -9999   -9999   -9999   -9999   -9999   -9999   -9999   -9999   -9999   -9999   -9999   -9999   -9999   -9999   -9999   -9999   -9999   -9999   -9999   -9999   -9999   -9999   -9999   -9999   -9999   -9999   -9999   -9999   -9999   -9999   -9999   -9999   -9999   -9999   -9999   -9999   -9999   -9999   -9999   -9999   -9999   -9999   -9999   -9999   -9999   -9999   -9999   -9999   -9999   -9999   -9999   -9999   -9999   -9999   -9999   -9999   -9999   -9999   -9999   -9999   -9999   -9999   -9999   -9999   -9999   -9999   -9999   -9999   -9999   -9999   -9999   -9999   -9999   -9999   -9999
-9999   -9999   -9999   -9999   -9999   -9999   -9999   -9999   -9999   -9999   -9999   -9999   -9999   -9999   -9999   -9999   -9999   -9999   -9999   -9999   -9999   561.00   535.00   517.00   490.00   474.00   449.00   403.00   340.00   278.00   247.00   225.00   205.00   194.00   184.00   174.00   167.00   162.00   164.00   164.00   157.00   168.00   155.00   142.00   147.00   157.00   154.00   157.00   145.00   144.00   147.00   144.00   158.00   154.00   129.00   132.00   118.00   102.00   90.00   85.00   81.00   80.00   82.00   79.00   78.00   82.00   83.00   84.00   86.00   85.00   82.00   84.00   84.00   87.00   94.00   96.00   97.00   96.00   98.00   99.00   101.00   102.00   103.00   105.00   107.00   112.00   112.00   118.00   128.00   136.00   138.00   144.00   146.00   147.00   144.00   139.00   133.00   131.00   132.00   126.00   121.00   117.00   113.00   112.00   108.00   102.00   98.00   91.00   85.00   79.00   77.00   74.00   71.00   71.00   67.00   64.00   60.00   56.00   56.00   55.00   52.00   50.00   49.00   48.00   49.00   49.00   52.00   51.00   55.00   59.00   65.00   67.00   61.00   66.00   66.00   66.00   67.00   70.00   73.00   74.00   76.00   79.00   80.00   78.00   78.00   83.00   90.00   90.00   95.00   102.00   104.00   113.00   114.00   121.00   139.00   123.00   125.00   146.00   182.00   235.00   298.00   374.00   401.00   461.00   432.00   360.00   408.00   486.00   514.00   411.00   347.00   287.00   278.00   299.00   289.00   -9999   -9999   -9999   -9999   279.00   -9999   -9999   -9999   -9999   -9999   -9999   -9999   -9999   -9999   -9999   -9999   -9999   -9999   -9999   -9999   -9999   -9999   -9999   -9999   -9999   -9999   -9999   -9999   -9999   -9999   -9999   -9999   -9999   -9999   -9999   -9999   -9999   -9999   -9999   -9999   -9999   -9999   -9999   -9999   -9999   -9999   -9999   -9999   -9999   -9999   -9999   -9999   -9999   -9999   -9999   -9999   -9999   -9999   -9999   -9999   -9999   -9999   -9999   -9999   -9999   -9999   -9999   -9999   -9999   -9999   -9999   -9999   -9999   -9999   -9999   -9999   -9999   -9999   -9999   -9999   -9999   -9999   -9999   -9999   -9999   -9999   -9999   -9999   -9999   -9999   -9999   -9999   -9999   -9999   -9999   -9999   -9999   -9999   -9999
-9999   -9999   -9999   -9999   -9999   -9999   -9999   -9999   -9999   -9999   -9999   1046.00   963.00   896.00   838.00   785.00   733.00   688.00   646.00   615.00   591.00   562.00   533.00   531.00   458.00   437.00   392.00   355.00   310.00   262.00   237.00   235.00   223.00   195.00   181.00   175.00   168.00   168.00   169.00   171.00   166.00   152.00   144.00   139.00   136.00   133.00   138.00   132.00   129.00   133.00   139.00   146.00   154.00   144.00   137.00   133.00   116.00   98.00   87.00   83.00   82.00   82.00   80.00   80.00   82.00   85.00   89.00   89.00   90.00   89.00   88.00   90.00   91.00   92.00   96.00   101.00   103.00   103.00   104.00   106.00   108.00   110.00   113.00   112.00   113.00   118.00   124.00   128.00   143.00   149.00   160.00   167.00   164.00   166.00   166.00   156.00   149.00   147.00   149.00   143.00   135.00   129.00   124.00   120.00   112.00   110.00   100.00   92.00   89.00   84.00   79.00   75.00   74.00   72.00   69.00   65.00   62.00   58.00   58.00   54.00   53.00   51.00   51.00   51.00   50.00   49.00   51.00   52.00   54.00   56.00   59.00   60.00   59.00   61.00   67.00   67.00   66.00   70.00   71.00   72.00   74.00   76.00   74.00   75.00   75.00   79.00   84.00   86.00   89.00   95.00   100.00   103.00   109.00   118.00   124.00   127.00   120.00   130.00   153.00   184.00   234.00   296.00   367.00   444.00   463.00   486.00   508.00   615.00   549.00   479.00   420.00   351.00   325.00   -9999   -9999   -9999   -9999   -9999   -9999   -9999   -9999   -9999   -9999   -9999   -9999   -9999   -9999   -9999   -9999   -9999   -9999   -9999   -9999   -9999   -9999   -9999   -9999   -9999   -9999   -9999   -9999   -9999   -9999   -9999   -9999   -9999   -9999   -9999   -9999   -9999   -9999   -9999   -9999   -9999   -9999   -9999   -9999   -9999   -9999   -9999   -9999   -9999   -9999   -9999   -9999   -9999   -9999   -9999   -9999   -9999   -9999   -9999   -9999   -9999   -9999   -9999   -9999   -9999   -9999   -9999   -9999   -9999   -9999   -9999   -9999   -9999   -9999   -9999   -9999   -9999   -9999   -9999   -9999   -9999   -9999   -9999   -9999   -9999   -9999   -9999   -9999   -9999   -9999   -9999   -9999   -9999   -9999   -9999   -9999   -9999   -9999   -9999   -9999   -9999
-9999   -9999   -9999   -9999   -9999   -9999   -9999   -9999   -9999   -9999   1211.00   1083.00   1000.00   918.00   846.00   787.00   737.00   694.00   654.00   620.00   593.00   569.00   543.00   481.00   427.00   392.00   365.00   344.00   303.00   278.00   268.00   259.00   258.00   209.00   183.00   177.00   173.00   174.00   176.00   165.00   151.00   141.00   136.00   128.00   128.00   126.00   123.00   121.00   122.00   124.00   129.00   129.00   119.00   130.00   126.00   121.00   110.00   97.00   88.00   83.00   83.00   80.00   80.00   81.00   85.00   90.00   95.00   94.00   93.00   94.00   94.00   94.00   98.00   103.00   105.00   107.00   109.00   112.00   110.00   112.00   115.00   119.00   122.00   121.00   125.00   128.00   133.00   137.00   156.00   167.00   177.00   188.00   195.00   188.00   192.00   179.00   168.00   168.00   168.00   160.00   152.00   143.00   136.00   126.00   121.00   115.00   105.00   98.00   91.00   86.00   83.00   80.00   77.00   73.00   71.00   67.00   64.00   60.00   59.00   55.00   54.00   52.00   53.00   50.00   48.00   48.00   49.00   51.00   51.00   53.00   57.00   58.00   58.00   60.00   62.00   62.00   65.00   68.00   67.00   69.00   71.00   71.00   71.00   73.00   76.00   79.00   81.00   82.00   84.00   89.00   94.00   99.00   108.00   107.00   118.00   117.00   121.00   141.00   145.00   168.00   192.00   240.00   316.00   385.00   450.00   516.00   579.00   677.00   704.00   -9999   -9999   -9999   -9999   -9999   -9999   -9999   -9999   -9999   -9999   -9999   -9999   -9999   -9999   -9999   -9999   -9999   -9999   -9999   -9999   -9999   -9999   -9999   -9999   -9999   -9999   -9999   -9999   -9999   -9999   -9999   -9999   -9999   -9999   -9999   -9999   -9999   -9999   -9999   -9999   -9999   -9999   -9999   -9999   -9999   -9999   -9999   -9999   -9999   -9999   -9999   -9999   -9999   -9999   -9999   -9999   -9999   -9999   -9999   -9999   -9999   -9999   -9999   -9999   -9999   -9999   -9999   -9999   -9999   -9999   -9999   -9999   -9999   -9999   -9999   -9999   -9999   -9999   -9999   -9999   -9999   -9999   -9999   -9999   -9999   -9999   -9999   -9999   -9999   -9999   -9999   -9999   -9999   -9999   -9999   -9999   -9999   -9999   -9999   -9999   -9999   -9999   -9999   -9999   -9999
-9999   -9999   -9999   -9999   -9999   2688.00   2342.00   2065.00   1717.00   1405.00   1213.00   1097.00   1018.00   920.00   840.00   779.00   732.00   690.00   653.00   620.00   586.00   563.00   529.00   481.00   437.00   402.00   383.00   384.00   349.00   294.00   300.00   270.00   241.00   217.00   192.00   181.00   189.00   193.00   183.00   170.00   148.00   140.00   134.00   132.00   127.00   123.00   121.00   120.00   122.00   123.00   133.00   145.00   118.00   112.00   116.00   128.00   107.00   97.00   87.00   83.00   82.00   82.00   80.00   82.00   90.00   93.00   97.00   100.00   99.00   102.00   107.00   105.00   107.00   114.00   117.00   120.00   121.00   123.00   120.00   119.00   122.00   129.00   132.00   129.00   138.00   144.00   145.00   152.00   160.00   183.00   200.00   209.00   225.00   219.00   212.00   209.00   195.00   192.00   191.00   181.00   170.00   162.00   150.00   139.00   134.00   122.00   113.00   106.00   99.00   94.00   87.00   85.00   81.00   79.00   73.00   69.00   64.00   61.00   61.00   59.00   57.00   56.00   53.00   50.00   49.00   49.00   48.00   50.00   49.00   51.00   55.00   56.00   55.00   58.00   60.00   60.00   62.00   63.00   64.00   66.00   67.00   69.00   70.00   71.00   74.00   77.00   78.00   78.00   81.00   86.00   92.00   94.00   94.00   97.00   113.00   115.00   131.00   146.00   164.00   183.00   189.00   203.00   245.00   310.00   378.00   488.00   -9999   -9999   -9999   -9999   -9999   -9999   -9999   -9999   -9999   -9999   -9999   -9999   -9999   -9999   -9999   -9999   -9999   -9999   -9999   -9999   -9999   -9999   -9999   -9999   -9999   -9999   -9999   -9999   -9999   -9999   -9999   -9999   -9999   -9999   -9999   -9999   -9999   -9999   -9999   -9999   -9999   -9999   -9999   -9999   -9999   -9999   -9999   -9999   -9999   -9999   -9999   -9999   -9999   -9999   -9999   -9999   -9999   -9999   -9999   -9999   -9999   -9999   -9999   -9999   -9999   -9999   -9999   -9999   -9999   -9999   -9999   -9999   -9999   -9999   -9999   -9999   -9999   -9999   -9999   -9999   -9999   -9999   -9999   -9999   -9999   -9999   -9999   -9999   -9999   -9999   -9999   -9999   -9999   -9999   -9999   -9999   -9999   -9999   -9999   -9999   -9999   -9999   -9999   -9999   -9999   -9999   -9999   -9999
-9999   -9999   -9999   -9999   -9999   -9999   2259.00   2019.00   1719.00   1416.00   1246.00   1144.00   1029.00   918.00   833.00   781.00   740.00   697.00   653.00   611.00   576.00   532.00   499.00   467.00   434.00   400.00   376.00   377.00   360.00   335.00   314.00   291.00   254.00   216.00   194.00   192.00   187.00   192.00   178.00   163.00   150.00   143.00   142.00   132.00   129.00   122.00   120.00   118.00   119.00   123.00   135.00   155.00   143.00   113.00   109.00   114.00   111.00   96.00   87.00   84.00   80.00   83.00   82.00   86.00   90.00   97.00   101.00   103.00   105.00   111.00   116.00   121.00   120.00   126.00   132.00   135.00   136.00   134.00   132.00   136.00   134.00   143.00   147.00   145.00   153.00   162.00   170.00   176.00   176.00   199.00   251.00   236.00   248.00   251.00   246.00   237.00   227.00   222.00   216.00   209.00   200.00   182.00   170.00   159.00   147.00   134.00   125.00   116.00   108.00   100.00   93.00   88.00   84.00   81.00   75.00   70.00   67.00   63.00   60.00   60.00   57.00   56.00   52.00   52.00   51.00   50.00   48.00   49.00   50.00   48.00   51.00   51.00   55.00   56.00   58.00   59.00   59.00   61.00   62.00   64.00   65.00   67.00   68.00   69.00   73.00   74.00   74.00   76.00   78.00   81.00   85.00   85.00   90.00   96.00   101.00   108.00   120.00   130.00   161.00   188.00   202.00   217.00   253.00   254.00   304.00   413.00   -9999   -9999   -9999   -9999   -9999   -9999   -9999   -9999   -9999   -9999   -9999   -9999   -9999   -9999   -9999   -9999   -9999   -9999   -9999   -9999   -9999   -9999   -9999   -9999   -9999   -9999   -9999   -9999   -9999   -9999   -9999   -9999   -9999   -9999   -9999   -9999   -9999   -9999   -9999   -9999   -9999   -9999   -9999   -9999   -9999   -9999   -9999   -9999   -9999   -9999   -9999   -9999   -9999   -9999   -9999   -9999   -9999   -9999   -9999   -9999   -9999   -9999   -9999   -9999   -9999   -9999   -9999   -9999   -9999   -9999   -9999   -9999   -9999   -9999   -9999   -9999   -9999   -9999   -9999   -9999   -9999   -9999   -9999   -9999   -9999   -9999   -9999   -9999   -9999   -9999   -9999   -9999   -9999   -9999   -9999   -9999   -9999   -9999   -9999   -9999   -9999   -9999   -9999   -9999   -9999   -9999   -9999   -9999
-9999   -9999   -9999   -9999   -9999   -9999   2102.00   1889.00   1670.00   1418.00   1269.00   1158.00   1036.00   914.00   820.00   760.00   724.00   698.00   662.00   622.00   581.00   530.00   490.00   448.00   417.00   388.00   361.00   342.00   334.00   322.00   300.00   270.00   238.00   206.00   190.00   191.00   166.00   175.00   176.00   168.00   163.00   153.00   147.00   132.00   130.00   128.00   122.00   122.00   122.00   126.00   135.00   151.00   147.00   131.00   124.00   103.00   103.00   100.00   88.00   83.00   82.00   85.00   83.00   84.00   87.00   96.00   105.00   111.00   113.00   117.00   124.00   132.00   135.00   140.00   148.00   153.00   156.00   151.00   148.00   159.00   146.00   163.00   164.00   168.00   170.00   180.00   198.00   200.00   204.00   234.00   250.00   262.00   280.00   287.00   280.00   273.00   261.00   256.00   246.00   238.00   234.00   219.00   203.00   176.00   159.00   149.00   140.00   127.00   117.00   109.00   102.00   95.00   89.00   83.00   77.00   74.00   69.00   67.00   63.00   60.00   57.00   56.00   54.00   54.00   52.00   51.00   49.00   48.00   51.00   50.00   50.00   51.00   52.00   53.00   56.00   57.00   57.00   59.00   60.00   63.00   64.00   65.00   67.00   69.00   71.00   72.00   73.00   76.00   77.00   80.00   83.00   85.00   89.00   94.00   94.00   106.00   120.00   135.00   160.00   188.00   214.00   233.00   244.00   241.00   295.00   339.00   -9999   -9999   -9999   -9999   -9999   -9999   -9999   -9999   -9999   -9999   -9999   -9999   -9999   -9999   -9999   -9999   -9999   -9999   -9999   -9999   -9999   -9999   -9999   -9999   -9999   -9999   -9999   -9999   -9999   -9999   -9999   -9999   -9999   -9999   -9999   -9999   -9999   -9999   -9999   -9999   -9999   -9999   -9999   -9999   -9999   -9999   -9999   -9999   -9999   -9999   -9999   -9999   -9999   -9999   -9999   -9999   -9999   -9999   -9999   -9999   -9999   -9999   -9999   -9999   -9999   -9999   -9999   -9999   -9999   -9999   -9999   -9999   -9999   -9999   -9999   -9999   -9999   -9999   -9999   -9999   -9999   -9999   -9999   -9999   -9999   -9999   -9999   -9999   -9999   -9999   -9999   -9999   -9999   -9999   -9999   -9999   -9999   -9999   -9999   -9999   -9999   -9999   -9999   -9999   -9999   -9999   -9999   -9999
-9999   -9999   -9999   -9999   -9999   -9999   -9999   1754.00   1593.00   1444.00   1322.00   1205.00   1073.00   923.00   823.00   777.00   733.00   692.00   647.00   601.00   559.00   521.00   486.00   451.00   419.00   390.00   363.00   330.00   313.00   311.00   280.00   267.00   243.00   219.00   187.00   181.00   163.00   161.00   159.00   163.00   155.00   142.00   140.00   128.00   127.00   127.00   121.00   126.00   127.00   136.00   156.00   150.00   148.00   136.00   121.00   105.00   96.00   90.00   85.00   85.00   82.00   85.00   87.00   86.00   90.00   102.00   121.00   129.00   127.00   127.00   132.00   140.00   148.00   153.00   164.00   173.00   178.00   177.00   180.00   176.00   175.00   181.00   186.00   192.00   203.00   205.00   220.00   227.00   227.00   260.00   282.00   288.00   311.00   323.00   318.00   306.00   297.00   289.00   279.00   275.00   274.00   258.00   227.00   199.00   181.00   167.00   152.00   141.00   127.00   119.00   108.00   100.00   91.00   84.00   81.00   77.00   72.00   66.00   64.00   61.00   59.00   58.00   56.00   55.00   55.00   52.00   50.00   50.00   49.00   48.00   49.00   50.00   51.00   51.00   56.00   59.00   58.00   57.00   60.00   60.00   62.00   63.00   66.00   69.00   69.00   70.00   71.00   73.00   75.00   78.00   81.00   85.00   88.00   90.00   95.00   94.00   106.00   129.00   146.00   165.00   185.00   203.00   224.00   265.00   -9999   -9999   -9999   -9999   -9999   -9999   -9999   -9999   -9999   -9999   -9999   -9999   -9999   -9999   -9999   -9999   -9999   -9999   -9999   -9999   -9999   -9999   -9999   -9999   -9999   -9999   -9999   -9999   -9999   -9999   -9999   -9999   -9999   -9999   -9999   -9999   -9999   -9999   -9999   -9999   -9999   -9999   -9999   -9999   -9999   -9999   -9999   -9999   -9999   -9999   -9999   -9999   -9999   -9999   -9999   -9999   -9999   -9999   -9999   -9999   -9999   -9999   -9999   -9999   -9999   -9999   -9999   -9999   -9999   -9999   -9999   -9999   -9999   -9999   -9999   -9999   -9999   -9999   -9999   -9999   -9999   -9999   -9999   -9999   -9999   -9999   -9999   -9999   -9999   -9999   -9999   -9999   -9999   -9999   -9999   -9999   -9999   -9999   -9999   -9999   -9999   -9999   -9999   -9999   -9999   -9999   -9999   -9999   -9999   -9999
-9999   -9999   -9999   -9999   -9999   -9999   -9999   1622.00   1515.00   1428.00   1342.00   1202.00   1078.00   927.00   844.00   797.00   754.00   704.00   652.00   599.00   552.00   518.00   483.00   451.00   419.00   390.00   360.00   337.00   306.00   302.00   278.00   251.00   240.00   218.00   193.00   176.00   170.00   157.00   155.00   145.00   149.00   142.00   127.00   122.00   117.00   119.00   114.00   119.00   120.00   130.00   156.00   165.00   160.00   143.00   122.00   116.00   107.00   93.00   85.00   85.00   85.00   83.00   86.00   87.00   93.00   117.00   143.00   155.00   147.00   137.00   141.00   150.00   160.00   169.00   177.00   190.00   200.00   201.00   203.00   197.00   202.00   199.00   216.00   221.00   238.00   251.00   250.00   273.00   288.00   341.00   329.00   337.00   344.00   362.00   363.00   346.00   338.00   327.00   315.00   316.00   315.00   287.00   242.00   226.00   207.00   186.00   168.00   153.00   140.00   128.00   117.00   106.00   98.00   93.00   85.00   77.00   70.00   69.00   67.00   64.00   62.00   62.00   61.00   58.00   56.00   54.00   51.00   52.00   49.00   49.00   49.00   49.00   52.00   53.00   57.00   57.00   56.00   56.00   58.00   60.00   61.00   63.00   65.00   66.00   67.00   68.00   70.00   72.00   74.00   78.00   81.00   84.00   87.00   87.00   91.00   91.00   99.00   109.00   127.00   138.00   154.00   182.00   206.00   228.00   -9999   -9999   -9999   -9999   -9999   -9999   -9999   -9999   -9999   -9999   -9999   -9999   -9999   -9999   -9999   -9999   -9999   -9999   -9999   -9999   -9999   -9999   -9999   -9999   -9999   -9999   -9999   -9999   -9999   -9999   -9999   -9999   -9999   -9999   -9999   -9999   -9999   -9999   -9999   -9999   -9999   -9999   -9999   -9999   -9999   -9999   -9999   -9999   -9999   -9999   -9999   -9999   -9999   -9999   -9999   -9999   -9999   -9999   -9999   -9999   -9999   -9999   -9999   -9999   -9999   -9999   -9999   -9999   -9999   -9999   -9999   -9999   -9999   -9999   -9999   -9999   -9999   -9999   -9999   -9999   -9999   -9999   -9999   -9999   -9999   -9999   -9999   -9999   -9999   -9999   -9999   -9999   -9999   -9999   -9999   -9999   -9999   -9999   -9999   -9999   -9999   -9999   -9999   -9999   -9999   -9999   -9999   -9999   -9999   -9999
-9999   -9999   -9999   -9999   -9999   -9999   -9999   1563.00   1477.00   1387.00   1312.00   1178.00   1043.00   937.00   881.00   827.00   772.00   718.00   657.00   608.00   564.00   524.00   486.00   453.00   418.00   392.00   368.00   350.00   314.00   309.00   285.00   251.00   204.00   189.00   179.00   168.00   164.00   158.00   152.00   142.00   145.00   130.00   121.00   121.00   116.00   114.00   113.00   114.00   113.00   122.00   144.00   160.00   164.00   149.00   118.00   105.00   102.00   96.00   88.00   85.00   85.00   86.00   88.00   90.00   95.00   128.00   160.00   169.00   160.00   146.00   148.00   156.00   169.00   183.00   196.00   205.00   220.00   228.00   232.00   229.00   229.00   232.00   252.00   253.00   282.00   313.00   276.00   315.00   352.00   386.00   358.00   400.00   435.00   423.00   411.00   395.00   383.00   370.00   358.00   366.00   355.00   319.00   275.00   261.00   232.00   203.00   185.00   167.00   150.00   141.00   126.00   117.00   109.00   104.00   95.00   89.00   78.00   75.00   72.00   67.00   65.00   64.00   60.00   60.00   58.00   56.00   52.00   52.00   51.00   49.00   49.00   50.00   50.00   54.00   53.00   54.00   54.00   55.00   56.00   57.00   60.00   62.00   64.00   63.00   64.00   66.00   67.00   69.00   73.00   75.00   78.00   82.00   81.00   83.00   85.00   90.00   95.00   103.00   118.00   130.00   134.00   156.00   163.00   190.00   -9999   -9999   -9999   -9999   -9999   -9999   -9999   -9999   -9999   -9999   -9999   -9999   -9999   -9999   -9999   -9999   -9999   -9999   -9999   -9999   -9999   -9999   -9999   -9999   -9999   -9999   -9999   -9999   -9999   -9999   -9999   -9999   -9999   -9999   -9999   -9999   -9999   -9999   -9999   -9999   -9999   -9999   -9999   -9999   -9999   -9999   -9999   -9999   -9999   -9999   -9999   -9999   -9999   -9999   -9999   -9999   -9999   -9999   -9999   -9999   -9999   -9999   -9999   -9999   -9999   -9999   -9999   -9999   -9999   -9999   -9999   -9999   -9999   -9999   -9999   -9999   -9999   -9999   -9999   -9999   -9999   -9999   -9999   -9999   -9999   -9999   -9999   -9999   -9999   -9999   -9999   -9999   -9999   -9999   -9999   -9999   -9999   -9999   -9999   -9999   -9999   -9999   -9999   -9999   -9999   -9999   -9999   -9999   -9999   -9999
-9999   -9999   -9999   -9999   -9999   -9999   -9999   1632.00   1514.00   1382.00   1269.00   1167.00   1061.00   986.00   922.00   854.00   790.00   725.00   656.00   609.00   563.00   524.00   486.00   452.00   431.00   418.00   363.00   348.00   315.00   267.00   263.00   238.00   208.00   185.00   169.00   163.00   157.00   163.00   147.00   141.00   141.00   127.00   123.00   119.00   118.00   117.00   113.00   112.00   110.00   112.00   129.00   151.00   149.00   141.00   122.00   113.00   97.00   88.00   86.00   88.00   87.00   91.00   91.00   92.00   95.00   124.00   156.00   163.00   161.00   158.00   157.00   166.00   181.00   195.00   211.00   225.00   238.00   252.00   265.00   262.00   264.00   258.00   290.00   297.00   279.00   378.00   340.00   366.00   368.00   393.00   380.00   425.00   464.00   469.00   461.00   444.00   437.00   415.00   403.00   403.00   382.00   336.00   312.00   284.00   247.00   222.00   203.00   182.00   165.00   153.00   133.00   127.00   121.00   116.00   111.00   101.00   85.00   81.00   75.00   74.00   71.00   67.00   63.00   63.00   61.00   59.00   56.00   55.00   51.00   49.00   51.00   50.00   50.00   53.00   53.00   54.00   53.00   54.00   56.00   58.00   59.00   62.00   61.00   61.00   63.00   65.00   66.00   68.00   70.00   73.00   75.00   77.00   80.00   83.00   86.00   89.00   93.00   99.00   107.00   121.00   126.00   134.00   145.00   165.00   -9999   -9999   -9999   -9999   -9999   -9999   -9999   -9999   -9999   -9999   -9999   -9999   -9999   -9999   -9999   -9999   -9999   -9999   -9999   -9999   -9999   -9999   -9999   -9999   -9999   -9999   -9999   -9999   -9999   -9999   -9999   -9999   -9999   -9999   -9999   -9999   -9999   -9999   -9999   -9999   -9999   -9999   -9999   -9999   -9999   -9999   -9999   -9999   -9999   -9999   -9999   -9999   -9999   -9999   -9999   -9999   -9999   -9999   -9999   -9999   -9999   -9999   -9999   -9999   -9999   -9999   -9999   -9999   -9999   -9999   -9999   -9999   -9999   -9999   -9999   -9999   -9999   -9999   -9999   -9999   -9999   -9999   -9999   -9999   -9999   -9999   -9999   -9999   -9999   -9999   -9999   -9999   -9999   -9999   -9999   -9999   -9999   -9999   -9999   -9999   -9999   -9999   -9999   -9999   -9999   -9999   -9999   -9999   -9999   -9999
-9999   -9999   -9999   -9999   -9999   -9999   1947.00   1792.00   1572.00   1414.00   1294.00   1188.00   1088.00   1004.00   925.00   857.00   790.00   727.00   664.00   612.00   563.00   520.00   482.00   450.00   447.00   437.00   358.00   335.00   297.00   272.00   234.00   220.00   197.00   188.00   174.00   166.00   158.00   151.00   147.00   143.00   136.00   128.00   124.00   122.00   119.00   113.00   110.00   106.00   104.00   108.00   113.00   129.00   131.00   121.00   113.00   107.00   94.00   90.00   87.00   90.00   93.00   95.00   96.00   97.00   98.00   120.00   162.00   167.00   164.00   170.00   172.00   176.00   189.00   208.00   222.00   240.00   258.00   272.00   300.00   299.00   301.00   284.00   301.00   333.00   337.00   347.00   408.00   422.00   419.00   449.00   433.00   441.00   506.00   525.00   518.00   495.00   493.00   468.00   458.00   442.00   400.00   366.00   333.00   290.00   261.00   241.00   218.00   195.00   170.00   156.00   141.00   137.00   130.00   127.00   113.00   103.00   89.00   84.00   81.00   79.00   74.00   70.00   65.00   65.00   64.00   60.00   55.00   55.00   51.00   51.00   51.00   51.00   52.00   52.00   51.00   54.00   55.00   54.00   55.00   56.00   59.00   58.00   59.00   61.00   63.00   64.00   66.00   68.00   71.00   71.00   73.00   76.00   79.00   81.00   85.00   90.00   93.00   97.00   106.00   110.00   122.00   138.00   145.00   -9999   -9999   -9999   -9999   -9999   -9999   -9999   -9999   -9999   -9999   -9999   -9999   -9999   -9999   -9999   -9999   -9999   -9999   -9999   -9999   -9999   -9999   -9999   -9999   -9999   -9999   -9999   -9999   -9999   -9999   -9999   -9999   -9999   -9999   -9999   -9999   -9999   -9999   -9999   -9999   -9999   -9999   -9999   -9999   -9999   -9999   -9999   -9999   -9999   -9999   -9999   -9999   -9999   -9999   -9999   -9999   -9999   -9999   -9999   -9999   -9999   -9999   -9999   -9999   -9999   -9999   -9999   -9999   -9999   -9999   -9999   -9999   -9999   -9999   -9999   -9999   -9999   -9999   -9999   -9999   -9999   -9999   -9999   -9999   -9999   -9999   -9999   -9999   -9999   -9999   -9999   -9999   -9999   -9999   -9999   -9999   -9999   -9999   -9999   -9999   -9999   -9999   -9999   -9999   -9999   -9999   -9999   -9999   -9999   -9999   -9999
-9999   -9999   -9999   -9999   -9999   -9999   2312.00   1962.00   1715.00   1493.00   1325.00   1192.00   1086.00   999.00   926.00   856.00   780.00   712.00   648.00   599.00   557.00   517.00   477.00   442.00   420.00   381.00   346.00   311.00   281.00   254.00   235.00   216.00   199.00   186.00   174.00   167.00   160.00   153.00   145.00   138.00   135.00   131.00   127.00   123.00   120.00   114.00   110.00   107.00   104.00   105.00   110.00   122.00   125.00   131.00   124.00   107.00   94.00   90.00   90.00   93.00   98.00   99.00   101.00   103.00   104.00   121.00   138.00   160.00   171.00   184.00   192.00   191.00   197.00   213.00   235.00   255.00   276.00   293.00   312.00   334.00   351.00   315.00   334.00   365.00   383.00   431.00   484.00   504.00   481.00   495.00   519.00   517.00   577.00   590.00   586.00   561.00   557.00   532.00   514.00   487.00   432.00   392.00   346.00   319.00   290.00   266.00   234.00   205.00   182.00   167.00   157.00   145.00   143.00   130.00   109.00   104.00   94.00   90.00   86.00   82.00   77.00   75.00   72.00   69.00   67.00   61.00   60.00   56.00   55.00   54.00   52.00   53.00   52.00   53.00   53.00   53.00   54.00   56.00   55.00   56.00   57.00   57.00   59.00   60.00   62.00   63.00   65.00   68.00   69.00   71.00   73.00   75.00   78.00   80.00   83.00   88.00   94.00   98.00   106.00   111.00   122.00   136.00   138.00   -9999   -9999   -9999   -9999   -9999   -9999   -9999   -9999   -9999   -9999   -9999   -9999   -9999   -9999   -9999   -9999   -9999   -9999   -9999   -9999   -9999   -9999   -9999   -9999   -9999   -9999   -9999   -9999   -9999   -9999   -9999   -9999   -9999   -9999   -9999   -9999   -9999   -9999   -9999   -9999   -9999   -9999   -9999   -9999   -9999   -9999   -9999   -9999   -9999   -9999   -9999   -9999   -9999   -9999   -9999   -9999   -9999   -9999   -9999   -9999   -9999   -9999   -9999   -9999   -9999   -9999   -9999   -9999   -9999   -9999   -9999   -9999   -9999   -9999   -9999   -9999   -9999   -9999   -9999   -9999   -9999   -9999   -9999   -9999   -9999   -9999   -9999   -9999   -9999   -9999   -9999   -9999   -9999   -9999   -9999   -9999   -9999   -9999   -9999   -9999   -9999   -9999   -9999   -9999   -9999   -9999   -9999   -9999   -9999   -9999   -9999
-9999   -9999   -9999   -9999   -9999   -9999   2511.00   2236.00   1778.00   1463.00   1298.00   1186.00   1078.00   991.00   908.00   836.00   760.00   695.00   634.00   583.00   540.00   502.00   469.00   441.00   403.00   368.00   338.00   310.00   285.00   260.00   242.00   222.00   205.00   186.00   172.00   163.00   155.00   151.00   145.00   139.00   132.00   127.00   123.00   119.00   116.00   110.00   107.00   103.00   102.00   103.00   103.00   114.00   125.00   127.00   114.00   109.00   94.00   93.00   92.00   96.00   99.00   104.00   105.00   108.00   110.00   125.00   137.00   162.00   179.00   193.00   210.00   219.00   224.00   238.00   249.00   267.00   290.00   317.00   334.00   354.00   370.00   353.00   394.00   433.00   416.00   481.00   520.00   617.00   584.00   582.00   582.00   610.00   636.00   663.00   655.00   653.00   628.00   605.00   577.00   520.00   466.00   415.00   372.00   353.00   326.00   286.00   245.00   218.00   198.00   183.00   170.00   164.00   151.00   132.00   119.00   106.00   103.00   97.00   92.00   88.00   82.00   76.00   76.00   71.00   67.00   62.00   61.00   58.00   58.00   56.00   53.00   53.00   53.00   53.00   54.00   54.00   55.00   57.00   55.00   55.00   56.00   57.00   59.00   61.00   63.00   63.00   64.00   67.00   67.00   71.00   75.00   77.00   77.00   81.00   84.00   87.00   93.00   97.00   113.00   117.00   123.00   135.00   133.00   -9999   -9999   -9999   -9999   -9999   -9999   -9999   -9999   -9999   -9999   -9999   -9999   -9999   -9999   -9999   -9999   -9999   -9999   -9999   -9999   -9999   -9999   -9999   -9999   -9999   -9999   -9999   -9999   -9999   -9999   -9999   -9999   -9999   -9999   -9999   -9999   -9999   -9999   -9999   -9999   -9999   -9999   -9999   -9999   -9999   -9999   -9999   -9999   -9999   -9999   -9999   -9999   -9999   -9999   -9999   -9999   -9999   -9999   -9999   -9999   -9999   -9999   -9999   -9999   -9999   -9999   -9999   -9999   -9999   -9999   -9999   -9999   -9999   -9999   -9999   -9999   -9999   -9999   -9999   -9999   -9999   -9999   -9999   -9999   -9999   -9999   -9999   -9999   -9999   -9999   -9999   -9999   -9999   -9999   -9999   -9999   -9999   -9999   -9999   -9999   -9999   -9999   -9999   -9999   -9999   -9999   -9999   -9999   -9999   -9999   -9999
-9999   -9999   -9999   -9999   -9999   -9999   -9999   2131.00   1803.00   1467.00   1268.00   1126.00   1050.00   962.00   875.00   804.00   736.00   677.00   625.00   573.00   530.00   491.00   457.00   424.00   395.00   367.00   337.00   310.00   285.00   262.00   240.00   219.00   202.00   184.00   167.00   155.00   150.00   144.00   141.00   136.00   129.00   124.00   118.00   117.00   113.00   111.00   107.00   103.00   100.00   99.00   99.00   102.00   110.00   115.00   106.00   99.00   94.00   93.00   95.00   98.00   101.00   107.00   111.00   111.00   116.00   126.00   145.00   157.00   189.00   206.00   220.00   240.00   252.00   261.00   278.00   290.00   310.00   333.00   359.00   390.00   389.00   385.00   415.00   478.00   510.00   569.00   588.00   633.00   705.00   694.00   660.00   695.00   724.00   741.00   732.00   783.00   736.00   730.00   694.00   572.00   506.00   467.00   412.00   394.00   345.00   299.00   264.00   240.00   217.00   199.00   186.00   173.00   163.00   141.00   129.00   118.00   111.00   106.00   100.00   93.00   87.00   81.00   78.00   76.00   72.00   67.00   64.00   62.00   59.00   57.00   55.00   54.00   54.00   55.00   55.00   55.00   56.00   58.00   56.00   55.00   56.00   58.00   59.00   61.00   60.00   63.00   66.00   66.00   68.00   71.00   76.00   81.00   80.00   82.00   85.00   88.00   93.00   97.00   106.00   115.00   122.00   128.00   130.00   -9999   -9999   -9999   -9999   -9999   -9999   -9999   -9999   -9999   -9999   -9999   -9999   -9999   -9999   -9999   -9999   -9999   -9999   -9999   -9999   -9999   -9999   -9999   -9999   -9999   -9999   -9999   -9999   -9999   -9999   -9999   -9999   -9999   -9999   -9999   -9999   -9999   -9999   -9999   -9999   -9999   -9999   -9999   -9999   -9999   -9999   -9999   -9999   -9999   -9999   -9999   -9999   -9999   -9999   -9999   -9999   -9999   -9999   -9999   -9999   -9999   -9999   -9999   -9999   -9999   -9999   -9999   -9999   -9999   -9999   -9999   -9999   -9999   -9999   -9999   -9999   -9999   -9999   -9999   -9999   -9999   -9999   -9999   -9999   -9999   -9999   -9999   -9999   -9999   -9999   -9999   -9999   -9999   -9999   -9999   -9999   -9999   -9999   -9999   -9999   -9999   -9999   -9999   -9999   -9999   -9999   -9999   -9999   -9999   -9999   -9999
-9999   -9999   -9999   -9999   -9999   -9999   -9999   1834.00   1625.00   1384.00   1234.00   1112.00   1001.00   919.00   852.00   788.00   729.00   672.00   618.00   572.00   528.00   486.00   451.00   417.00   386.00   358.00   331.00   303.00   279.00   256.00   234.00   214.00   195.00   175.00   164.00   153.00   146.00   143.00   137.00   137.00   130.00   124.00   118.00   113.00   111.00   109.00   106.00   104.00   101.00   97.00   96.00   97.00   100.00   103.00   105.00   102.00   95.00   97.00   100.00   102.00   104.00   109.00   114.00   116.00   119.00   127.00   146.00   163.00   178.00   209.00   234.00   248.00   263.00   284.00   298.00   320.00   336.00   358.00   384.00   414.00   442.00   449.00   476.00   465.00   539.00   610.00   637.00   666.00   741.00   787.00   727.00   824.00   857.00   857.00   882.00   915.00   916.00   910.00   835.00   667.00   585.00   501.00   456.00   413.00   355.00   315.00   284.00   256.00   233.00   213.00   196.00   197.00   185.00   165.00   143.00   129.00   123.00   117.00   107.00   100.00   94.00   87.00   88.00   82.00   78.00   72.00   67.00   63.00   60.00   56.00   54.00   54.00   55.00   55.00   55.00   57.00   58.00   57.00   55.00   56.00   56.00   58.00   59.00   60.00   61.00   62.00   64.00   67.00   71.00   74.00   78.00   81.00   83.00   86.00   88.00   92.00   101.00   106.00   109.00   116.00   127.00   127.00   131.00   -9999   -9999   -9999   -9999   -9999   -9999   -9999   -9999   -9999   -9999   -9999   -9999   -9999   -9999   -9999   -9999   -9999   -9999   -9999   -9999   -9999   -9999   -9999   -9999   -9999   -9999   -9999   -9999   -9999   -9999   -9999   -9999   -9999   -9999   -9999   -9999   -9999   -9999   -9999   -9999   -9999   -9999   -9999   -9999   -9999   -9999   -9999   -9999   -9999   -9999   -9999   -9999   -9999   -9999   -9999   -9999   -9999   -9999   -9999   -9999   -9999   -9999   -9999   -9999   -9999   -9999   -9999   -9999   -9999   -9999   -9999   -9999   -9999   -9999   -9999   -9999   -9999   -9999   -9999   -9999   -9999   -9999   -9999   -9999   -9999   -9999   -9999   -9999   -9999   -9999   -9999   -9999   -9999   -9999   -9999   -9999   -9999   -9999   -9999   -9999   -9999   -9999   -9999   -9999   -9999   -9999   -9999   -9999   -9999   -9999   -9999
-9999   -9999   -9999   -9999   -9999   -9999   -9999   1496.00   1351.00   1189.00   1138.00   1063.00   974.00   886.00   813.00   763.00   712.00   661.00   609.00   562.00   519.00   480.00   442.00   409.00   373.00   346.00   322.00   295.00   268.00   248.00   228.00   208.00   191.00   172.00   159.00   151.00   143.00   142.00   140.00   130.00   124.00   124.00   120.00   113.00   109.00   107.00   104.00   102.00   99.00   96.00   95.00   97.00   99.00   102.00   100.00   95.00   96.00   100.00   102.00   105.00   108.00   111.00   118.00   121.00   125.00   131.00   140.00   166.00   179.00   208.00   234.00   257.00   274.00   296.00   310.00   328.00   354.00   389.00   415.00   444.00   467.00   511.00   536.00   537.00   608.00   590.00   664.00   724.00   821.00   840.00   822.00   937.00   1017.00   1027.00   1106.00   1144.00   1147.00   1120.00   963.00   745.00   629.00   542.00   508.00   437.00   385.00   346.00   306.00   271.00   254.00   247.00   230.00   217.00   197.00   177.00   160.00   143.00   134.00   125.00   114.00   106.00   100.00   95.00   88.00   87.00   81.00   74.00   72.00   67.00   62.00   59.00   57.00   55.00   57.00   57.00   57.00   57.00   59.00   57.00   56.00   55.00   57.00   57.00   58.00   59.00   61.00   64.00   65.00   67.00   73.00   76.00   80.00   85.00   90.00   92.00   93.00   94.00   113.00   116.00   123.00   117.00   132.00   133.00   -9999   -9999   -9999   -9999   -9999   -9999   -9999   -9999   -9999   -9999   -9999   -9999   -9999   -9999   -9999   -9999   -9999   -9999   -9999   -9999   -9999   -9999   -9999   -9999   -9999   -9999   -9999   -9999   -9999   -9999   -9999   -9999   -9999   -9999   -9999   -9999   -9999   -9999   -9999   -9999   -9999   -9999   -9999   -9999   -9999   -9999   -9999   -9999   -9999   -9999   -9999   -9999   -9999   -9999   -9999   -9999   -9999   -9999   -9999   -9999   -9999   -9999   -9999   -9999   -9999   -9999   -9999   -9999   -9999   -9999   -9999   -9999   -9999   -9999   -9999   -9999   -9999   -9999   -9999   -9999   -9999   -9999   -9999   -9999   -9999   -9999   -9999   -9999   -9999   -9999   -9999   -9999   -9999   -9999   -9999   -9999   -9999   -9999   -9999   -9999   -9999   -9999   -9999   -9999   -9999   -9999   -9999   -9999   -9999   -9999   -9999   -9999
-9999   -9999   -9999   -9999   -9999   -9999   -9999   1299.00   1235.00   1111.00   1029.00   977.00   911.00   839.00   772.00   721.00   681.00   636.00   591.00   548.00   508.00   471.00   435.00   401.00   367.00   341.00   314.00   286.00   259.00   237.00   220.00   203.00   187.00   173.00   160.00   150.00   142.00   136.00   133.00   127.00   123.00   119.00   115.00   111.00   109.00   105.00   103.00   101.00   99.00   97.00   96.00   94.00   93.00   92.00   92.00   92.00   96.00   101.00   105.00   107.00   111.00   114.00   121.00   127.00   133.00   136.00   143.00   160.00   180.00   191.00   224.00   265.00   293.00   306.00   320.00   337.00   351.00   374.00   401.00   444.00   499.00   532.00   589.00   630.00   666.00   719.00   743.00   797.00   885.00   980.00   948.00   1023.00   1180.00   1274.00   1379.00   1370.00   1357.00   1275.00   1038.00   816.00   736.00   638.00   608.00   505.00   463.00   430.00   360.00   326.00   302.00   276.00   249.00   232.00   214.00   193.00   169.00   152.00   137.00   128.00   117.00   108.00   103.00   97.00   94.00   89.00   84.00   80.00   75.00   68.00   63.00   60.00   57.00   56.00   58.00   58.00   58.00   58.00   60.00   57.00   56.00   56.00   58.00   57.00   58.00   60.00   63.00   66.00   68.00   69.00   70.00   77.00   79.00   89.00   94.00   99.00   98.00   99.00   114.00   121.00   133.00   124.00   125.00   131.00   -9999   -9999   -9999   -9999   -9999   -9999   -9999   -9999   -9999   -9999   -9999   -9999   -9999   -9999   -9999   -9999   -9999   -9999   -9999   -9999   -9999   -9999   -9999   -9999   -9999   -9999   -9999   -9999   -9999   -9999   -9999   -9999   -9999   -9999   -9999   -9999   -9999   -9999   -9999   -9999   -9999   -9999   -9999   -9999   -9999   -9999   -9999   -9999   -9999   -9999   -9999   -9999   -9999   -9999   -9999   -9999   -9999   -9999   -9999   -9999   -9999   -9999   -9999   -9999   -9999   -9999   -9999   -9999   -9999   -9999   -9999   -9999   -9999   -9999   -9999   -9999   -9999   -9999   -9999   -9999   -9999   -9999   -9999   -9999   -9999   -9999   -9999   -9999   -9999   -9999   -9999   -9999   -9999   -9999   -9999   -9999   -9999   -9999   -9999   -9999   -9999   -9999   -9999   -9999   -9999   -9999   -9999   -9999   -9999   -9999   -9999   -9999
-9999   -9999   -9999   -9999   -9999   -9999   -9999   1155.00   1109.00   1035.00   951.00   894.00   849.00   796.00   735.00   675.00   639.00   605.00   565.00   527.00   491.00   457.00   423.00   390.00   359.00   332.00   306.00   281.00   256.00   233.00   213.00   198.00   182.00   170.00   160.00   153.00   144.00   137.00   132.00   127.00   122.00   118.00   115.00   110.00   107.00   103.00   102.00   100.00   97.00   96.00   96.00   94.00   92.00   91.00   91.00   93.00   96.00   101.00   105.00   111.00   115.00   118.00   122.00   131.00   138.00   144.00   149.00   161.00   174.00   186.00   206.00   251.00   292.00   328.00   336.00   349.00   369.00   388.00   419.00   456.00   498.00   560.00   598.00   643.00   703.00   775.00   846.00   913.00   959.00   1042.00   1144.00   1193.00   1350.00   1548.00   1673.00   1615.00   1542.00   1425.00   1202.00   995.00   857.00   766.00   685.00   590.00   552.00   498.00   410.00   364.00   323.00   290.00   262.00   243.00   223.00   202.00   176.00   158.00   147.00   136.00   121.00   112.00   110.00   102.00   100.00   93.00   91.00   82.00   77.00   71.00   65.00   60.00   59.00   59.00   58.00   60.00   60.00   60.00   61.00   59.00   57.00   58.00   58.00   59.00   62.00   63.00   66.00   69.00   72.00   75.00   78.00   87.00   84.00   96.00   95.00   103.00   105.00   108.00   117.00   141.00   147.00   140.00   132.00   -9999   -9999   -9999   -9999   -9999   -9999   -9999   -9999   -9999   -9999   -9999   -9999   -9999   -9999   -9999   -9999   -9999   -9999   -9999   -9999   -9999   -9999   -9999   -9999   -9999   -9999   -9999   -9999   -9999   -9999   -9999   -9999   -9999   -9999   -9999   -9999   -9999   -9999   -9999   -9999   -9999   -9999   -9999   -9999   -9999   -9999   -9999   -9999   -9999   -9999   -9999   -9999   -9999   -9999   -9999   -9999   -9999   -9999   -9999   -9999   -9999   -9999   -9999   -9999   -9999   -9999   -9999   -9999   -9999   -9999   -9999   -9999   -9999   -9999   -9999   -9999   -9999   -9999   -9999   -9999   -9999   -9999   -9999   -9999   -9999   -9999   -9999   -9999   -9999   -9999   -9999   -9999   -9999   -9999   -9999   -9999   -9999   -9999   -9999   -9999   -9999   -9999   -9999   -9999   -9999   -9999   -9999   -9999   -9999   -9999   -9999   -9999   -9999
